1.082099999999999973e+01 1.148610000000000042e+01 -1.364300000000000068e+01 1.000000000000000000e+01
1.040409999999999968e+01 1.017319999999999958e+01 -1.520490000000000030e+01 1.000000000000000000e+01
1.202110000000000056e+01 1.360120000000000040e+01 -1.324349999999999916e+01 1.000000000000000000e+01
1.191089999999999982e+01 1.247470000000000034e+01 -1.487589999999999968e+01 1.000000000000000000e+01
1.148559999999999981e+01 1.115320000000000000e+01 -1.627700000000000102e+01 1.000000000000000000e+01
9.427920000000000300e+00 9.919169999999999376e+00 -1.356039999999999957e+01 1.000000000000000000e+01
9.040720000000000312e+00 8.669579999999999842e+00 -1.536200000000000010e+01 1.000000000000000000e+01
1.277710000000000079e+01 1.454640000000000022e+01 -1.482230000000000025e+01 1.000000000000000000e+01
8.328580000000000538e+00 6.708289999999999864e+00 -1.889590000000000103e+01 9.000000000000000000e+00
7.862499999999999822e+00 8.259339999999999904e+00 -1.397610000000000063e+01 9.000000000000000000e+00
1.018340000000000067e+01 9.184079999999999799e+00 -1.701709999999999923e+01 9.000000000000000000e+00
1.262330000000000041e+01 1.329609999999999914e+01 -1.649050000000000082e+01 9.000000000000000000e+00
3.283380000000000187e+00 5.112910000000000288e+00 -1.446819999999999951e+01 9.000000000000000000e+00
1.225830000000000020e+01 1.505630000000000024e+01 -1.189380000000000059e+01 9.000000000000000000e+00
4.848110000000000142e+00 6.169690000000000119e+00 -1.394159999999999933e+01 9.000000000000000000e+00
7.076670000000000016e+00 6.237210000000000143e+00 -1.734410000000000096e+01 9.000000000000000000e+00
5.999460000000000015e+00 6.164019999999999833e+00 -1.540649999999999942e+01 9.000000000000000000e+00
6.708479999999999777e+00 5.310419999999999696e+00 -1.913149999999999906e+01 9.000000000000000000e+00
4.445380000000000109e+00 4.960090000000000110e+00 -1.601129999999999853e+01 9.000000000000000000e+00
8.797399999999999665e+00 7.714850000000000207e+00 -1.725850000000000151e+01 9.000000000000000000e+00
7.533660000000000245e+00 7.204760000000000275e+00 -1.572330000000000005e+01 9.000000000000000000e+00
9.925330000000000652e+00 8.201549999999999230e+00 -1.895019999999999882e+01 9.000000000000000000e+00
5.478939999999999699e+00 5.049690000000000012e+00 -1.746780000000000044e+01 9.000000000000000000e+00
9.149419999999999220e+00 6.903400000000000425e+00 -2.063719999999999999e+01 9.000000000000000000e+00
1.118750000000000000e+01 9.998120000000000118e+00 -1.817269999999999897e+01 9.000000000000000000e+00
6.381230000000000402e+00 7.360369999999999635e+00 -1.354550000000000054e+01 9.000000000000000000e+00
3.711990000000000123e+00 3.815339999999999954e+00 -1.807280000000000086e+01 9.000000000000000000e+00
1.223019999999999996e+01 1.181339999999999968e+01 -1.781810000000000116e+01 9.000000000000000000e+00
1.295279999999999987e+01 1.593929999999999936e+01 -1.345940000000000047e+01 9.000000000000000000e+00
1.327999999999999936e+01 1.665559999999999974e+01 -1.534329999999999927e+01 9.000000000000000000e+00
1.121129999999999960e+01 9.074109999999999232e+00 -2.324340000000000117e+01 8.000000000000000000e+00
1.040540000000000020e+01 8.172729999999999606e+00 -2.153180000000000049e+01 8.000000000000000000e+00
7.748230000000000395e+00 5.528710000000000235e+00 -2.081850000000000023e+01 8.000000000000000000e+00
6.060559999999999725e+00 4.218359999999999665e+00 -2.085920000000000130e+01 8.000000000000000000e+00
1.100220000000000020e+01 9.154360000000000497e+00 -2.024020000000000152e+01 8.000000000000000000e+00
1.197710000000000008e+01 1.079739999999999966e+01 -2.006480000000000175e+01 8.000000000000000000e+00
4.941980000000000040e+00 4.033750000000000391e+00 -1.934140000000000015e+01 8.000000000000000000e+00
9.662160000000000082e+00 6.927120000000000388e+00 -2.285829999999999984e+01 8.000000000000000000e+00
4.342690000000000161e+00 2.983220000000000205e+00 -2.110970000000000013e+01 8.000000000000000000e+00
1.298259999999999970e+01 1.376130000000000031e+01 -1.841959999999999908e+01 8.000000000000000000e+00
1.182169999999999987e+01 1.030780000000000030e+01 -2.202570000000000050e+01 8.000000000000000000e+00
2.744499999999999940e+00 4.045340000000000380e+00 -1.643179999999999907e+01 8.000000000000000000e+00
1.312470000000000070e+01 1.518309999999999960e+01 -1.675169999999999959e+01 8.000000000000000000e+00
1.341729999999999912e+01 1.829179999999999851e+01 -1.422109999999999985e+01 8.000000000000000000e+00
8.398329999999999629e+00 5.591249999999999609e+00 -2.263400000000000034e+01 7.000000000000000000e+00
1.844379999999999908e+00 3.043789999999999996e+00 -1.838070000000000093e+01 7.000000000000000000e+00
2.948370000000000157e+00 2.767389999999999795e+00 -1.993410000000000082e+01 7.000000000000000000e+00
1.261640000000000050e+01 1.236180000000000057e+01 -1.976760000000000161e+01 7.000000000000000000e+00
1.322940000000000005e+01 1.781700000000000017e+01 -1.246920000000000073e+01 7.000000000000000000e+00
1.267500000000000071e+01 1.682720000000000127e+01 -1.095110000000000028e+01 7.000000000000000000e+00
1.253320000000000078e+01 1.214320000000000022e+01 -2.194999999999999929e+01 7.000000000000000000e+00
1.292629999999999946e+01 1.394689999999999941e+01 -2.129720000000000013e+01 7.000000000000000000e+00
8.775009999999999755e-01 3.555410000000000181e+00 -1.671249999999999858e+01 6.000000000000000000e+00
6.844890000000000363e+00 4.197569999999999801e+00 -2.256859999999999999e+01 6.000000000000000000e+00
1.500410000000000021e+00 4.390500000000000291e+00 -1.489179999999999993e+01 6.000000000000000000e+00
1.091779999999999973e+01 1.269469999999999921e+01 -1.194749999999999979e+01 6.000000000000000000e+00
1.334169999999999945e+01 1.936390000000000100e+01 -1.585089999999999932e+01 6.000000000000000000e+00
1.314000000000000057e+01 1.513189999999999991e+01 -1.988139999999999930e+01 6.000000000000000000e+00
1.331739999999999924e+01 1.777649999999999864e+01 -1.698290000000000077e+01 6.000000000000000000e+00
1.326360000000000028e+01 1.624099999999999966e+01 -1.827680000000000149e+01 6.000000000000000000e+00
3.673840000000000217e+00 6.533339999999999925e+00 -1.248359999999999914e+01 6.000000000000000000e+00
1.224290000000000056e+01 1.123339999999999961e+01 -2.394399999999999906e+01 6.000000000000000000e+00
1.058849999999999980e+01 7.608539999999999637e+00 -2.446189999999999998e+01 5.000000000000000000e+00
1.266909999999999981e+00 1.699580000000000091e+00 -2.074699999999999989e+01 5.000000000000000000e+00
2.114390000000000214e+00 5.632019999999999804e+00 -1.296429999999999971e+01 5.000000000000000000e+00
1.310940000000000083e+01 1.785610000000000142e+01 -1.951999999999999957e+01 5.000000000000000000e+00
1.304209999999999958e+01 1.662089999999999890e+01 -2.129810000000000159e+01 5.000000000000000000e+00
5.120930000000000426e+00 7.606980000000000075e+00 -1.198889999999999922e+01 5.000000000000000000e+00
2.825509999999999966e+00 1.618349999999999955e+00 -2.180280000000000129e+01 4.000000000000000000e+00
3.318450000000000011e-01 2.333410000000000206e+00 -1.942549999999999955e+01 4.000000000000000000e+00
1.129870000000000019e+01 1.419640000000000057e+01 -1.060490000000000066e+01 4.000000000000000000e+00
1.263809999999999967e+01 1.787790000000000035e+01 -9.161020000000000607e+00 4.000000000000000000e+00
1.276350000000000051e+01 1.331290000000000084e+01 -2.357469999999999999e+01 4.000000000000000000e+00
9.686870000000000758e+00 1.121010000000000062e+01 -1.191660000000000075e+01 4.000000000000000000e+00
6.647949999999999804e+00 8.670899999999999608e+00 -1.178860000000000063e+01 4.000000000000000000e+00
1.311810000000000009e+01 1.921239999999999881e+01 -1.041569999999999929e+01 4.000000000000000000e+00
8.147429999999999950e+00 9.432230000000000558e+00 -1.236190000000000033e+01 4.000000000000000000e+00
1.332670000000000066e+01 2.061270000000000024e+01 -1.411009999999999920e+01 4.000000000000000000e+00
3.845600000000000129e-01 5.395900000000000141e+00 -1.317120000000000068e+01 4.000000000000000000e+00
1.339349999999999952e+01 1.983210000000000051e+01 -1.226329999999999920e+01 4.000000000000000000e+00
8.015090000000000714e+00 4.261969999999999814e+00 -2.428729999999999833e+01 3.000000000000000000e+00
5.351499999999999702e+00 2.811129999999999907e+00 -2.276820000000000022e+01 3.000000000000000000e+00
9.467739999999999156e+00 5.746229999999999727e+00 -2.474249999999999972e+01 3.000000000000000000e+00
1.186200000000000010e+01 9.693469999999999587e+00 -2.510210000000000008e+01 3.000000000000000000e+00
4.151139999999999830e+00 1.351429999999999909e+00 -2.306960000000000122e+01 2.000000000000000000e+00
1.418889999999999985e+00 -9.907789999999999653e-02 -2.231850000000000023e+01 2.000000000000000000e+00
1.305840000000000067e+01 1.937450000000000117e+01 -1.833030000000000115e+01 2.000000000000000000e+00
1.303139999999999965e+01 2.098130000000000095e+01 -1.681080000000000041e+01 2.000000000000000000e+00
1.187279999999999980e+01 1.591119999999999912e+01 -9.451710000000000278e+00 2.000000000000000000e+00
1.299169999999999980e+01 1.535040000000000049e+01 -2.291359999999999886e+01 2.000000000000000000e+00
1.290869999999999962e+01 2.233749999999999858e+01 -1.515770000000000017e+01 2.000000000000000000e+00
8.331830000000000069e+00 1.060389999999999944e+01 -1.082360000000000078e+01 2.000000000000000000e+00
1.943100000000000049e+00 7.004330000000000389e+00 -1.138560000000000016e+01 2.000000000000000000e+00
3.523340000000000138e+00 7.963059999999999583e+00 -1.071920000000000073e+01 2.000000000000000000e+00
6.695949999999999847e+00 9.867649999999999366e+00 -1.014170000000000016e+01 2.000000000000000000e+00
5.055329999999999657e+00 8.937580000000000524e+00 -1.023390000000000022e+01 2.000000000000000000e+00
3.040459999999999940e+00 -3.236970000000000125e-01 -2.317220000000000013e+01 1.000000000000000000e+00
-2.355980000000000019e-01 5.366959999999999509e-01 -2.153190000000000026e+01 1.000000000000000000e+00
1.309779999999999944e+01 2.118870000000000076e+01 -9.652520000000000877e+00 1.000000000000000000e+00
1.066920000000000002e+01 6.029690000000000438e+00 -2.623359999999999914e+01 1.000000000000000000e+00
1.291099999999999959e+01 1.064910000000000068e+01 -2.664229999999999876e+01 1.000000000000000000e+00
6.781579999999999941e+00 2.741200000000000081e+00 -2.432700000000000173e+01 1.000000000000000000e+00
1.155840000000000067e+01 7.938290000000000290e+00 -2.616410000000000124e+01 1.000000000000000000e+00
-1.080379999999999896e+00 3.839910000000000156e+00 -1.656619999999999848e+01 1.000000000000000000e+00
-3.623609999999999887e-01 4.500250000000000306e+00 -1.481189999999999962e+01 1.000000000000000000e+00
1.319490000000000052e+01 2.166290000000000049e+01 -1.172739999999999938e+01 1.000000000000000000e+00
1.322949999999999982e+01 1.742859999999999943e+01 -2.334039999999999893e+01 1.000000000000000000e+00
6.726210000000000022e+00 1.087199999999999989e+01 -8.684100000000000819e+00 1.000000000000000000e+00
9.935520000000000351e+00 1.264550000000000018e+01 -1.020989999999999931e+01 1.000000000000000000e+00
8.561849999999999739e+00 1.172620000000000040e+01 -9.409440000000000026e+00 1.000000000000000000e+00
1.067919999999999980e+01 1.445749999999999957e+01 -8.727610000000000312e+00 1.000000000000000000e+00
3.151470000000000216e+00 9.337440000000000850e+00 -9.162779999999999703e+00 1.000000000000000000e+00
4.189979999999999905e+01 5.031450000000000422e+00 -4.730730000000000324e+00 9.000000000000000000e+00
4.159680000000000177e+01 4.772520000000000095e+00 -7.033369999999999678e+00 9.000000000000000000e+00
4.143319999999999936e+01 2.795790000000000219e+00 -8.631719999999999615e+00 8.000000000000000000e+00
4.175600000000000023e+01 2.681999999999999940e+00 -5.660079999999999778e+00 8.000000000000000000e+00
4.128229999999999933e+01 7.162939999999999863e+00 -7.435260000000000424e+00 8.000000000000000000e+00
4.156739999999999924e+01 1.303819999999999979e+00 -3.877159999999999940e+00 7.000000000000000000e+00
4.200350000000000250e+01 3.208050000000000068e+00 -2.699559999999999960e+00 7.000000000000000000e+00
4.126530000000000342e+01 5.286859999999999893e+00 -9.394729999999999137e+00 7.000000000000000000e+00
4.186639999999999873e+01 2.699790000000000134e+00 -5.508640000000000203e-01 7.000000000000000000e+00
4.225880000000000081e+01 5.636529999999999596e+00 -2.533510000000000151e+00 6.000000000000000000e+00
4.179270000000000351e+01 7.362409999999999677e+00 -4.944799999999999862e+00 6.000000000000000000e+00
4.115339999999999776e+01 5.652359999999999607e-01 -1.070999999999999952e+00 5.000000000000000000e+00
4.121699999999999875e+01 9.414400000000000546e-01 -7.280630000000000379e+00 5.000000000000000000e+00
4.090140000000000242e+01 7.458779999999999966e+00 -1.027730000000000032e+01 5.000000000000000000e+00
4.072590000000000288e+01 -6.577490000000000281e-01 -2.970650000000000013e+00 5.000000000000000000e+00
4.070739999999999981e+01 -6.060590000000000144e-01 -5.491649999999999920e+00 5.000000000000000000e+00
4.084729999999999706e+01 5.997099999999999653e-01 1.215349999999999930e+00 4.000000000000000000e+00
4.147200000000000131e+01 2.639279999999999848e+00 1.959619999999999918e+00 4.000000000000000000e+00
4.225589999999999691e+01 4.604479999999999684e+00 2.089419999999999888e-01 4.000000000000000000e+00
3.903269999999999840e+01 -3.041859999999999786e+00 7.987880000000000535e-01 3.000000000000000000e+00
3.954229999999999734e+01 -2.614129999999999843e+00 -5.170329999999999870e+00 3.000000000000000000e+00
3.983890000000000242e+01 -1.087139999999999995e+00 2.103390000000000093e+00 3.000000000000000000e+00
4.000820000000000221e+01 -1.708960000000000035e+00 -5.025650000000000395e-01 3.000000000000000000e+00
4.144339999999999691e+01 9.623279999999999390e+00 -6.251890000000000391e+00 3.000000000000000000e+00
4.166879999999999740e+01 1.108150000000000013e+01 -4.911880000000000024e+00 3.000000000000000000e+00
4.101180000000000092e+01 9.331590000000000273e+00 -8.689320000000000377e+00 3.000000000000000000e+00
4.212349999999999994e+01 8.696070000000000633e+00 -3.323109999999999786e+00 3.000000000000000000e+00
4.100549999999999784e+01 4.461199999999999832e+00 -1.143319999999999936e+01 3.000000000000000000e+00
4.246020000000000039e+01 6.925159999999999982e+00 -1.119490000000000096e+00 3.000000000000000000e+00
3.962660000000000338e+01 -2.616319999999999979e+00 -2.865369999999999973e+00 2.000000000000000000e+00
4.062519999999999953e+01 6.640909999999999869e+00 -1.259529999999999994e+01 2.000000000000000000e+00
4.195080000000000098e+01 1.250179999999999936e+01 -2.365699999999999914e+00 2.000000000000000000e+00
4.242969999999999686e+01 8.732799999999999230e+00 3.739410000000000234e-01 2.000000000000000000e+00
3.910170000000000101e+01 -7.676060000000000105e-01 4.491030000000000300e+00 2.000000000000000000e+00
4.034049999999999869e+01 1.086829999999999963e+00 3.724320000000000075e+00 2.000000000000000000e+00
4.092999999999999972e+01 1.960579999999999989e+00 -1.053749999999999964e+01 2.000000000000000000e+00
4.017229999999999990e+01 -9.591779999999999751e-01 -8.009320000000000661e+00 2.000000000000000000e+00
4.174949999999999761e+01 4.664299999999999891e+00 2.905489999999999906e+00 2.000000000000000000e+00
4.230680000000000263e+01 6.555410000000000181e+00 1.610789999999999944e+00 2.000000000000000000e+00
4.154249999999999687e+01 1.330599999999999916e+01 -4.494309999999999583e+00 1.000000000000000000e+00
4.049770000000000181e+01 9.250569999999999737e+00 -1.196069999999999922e+01 1.000000000000000000e+00
4.226890000000000214e+01 1.091060000000000052e+01 1.871049999999999935e-01 1.000000000000000000e+00
4.101259999999999906e+01 1.159960000000000058e+01 -8.387420000000000542e+00 1.000000000000000000e+00
3.980089999999999861e+01 6.128310000000000146e-01 -1.241019999999999968e+01 1.000000000000000000e+00
3.907730000000000103e+01 -2.889040000000000052e+00 -7.425250000000000128e+00 1.000000000000000000e+00
3.859539999999999793e+01 -4.209120000000000417e+00 -1.675880000000000036e+00 1.000000000000000000e+00
3.695600000000000307e+01 -6.603500000000000369e+00 -1.788850000000000051e+00 1.000000000000000000e+00
3.825209999999999866e+01 -4.719459999999999766e+00 -3.893320000000000114e+00 1.000000000000000000e+00
3.778269999999999840e+01 -5.207340000000000302e+00 -1.511619999999999978e-02 1.000000000000000000e+00
3.807719999999999771e+01 -4.700999999999999623e+00 -5.997550000000000381e+00 1.000000000000000000e+00
4.040610000000000213e+01 2.985899999999999999e+00 -1.307859999999999978e+01 1.000000000000000000e+00
4.013179999999999836e+01 -1.944279999999999897e-01 -1.004589999999999961e+01 1.000000000000000000e+00
3.904059999999999775e+01 9.873889999999999612e-01 6.042209999999999859e+00 1.000000000000000000e+00
4.067629999999999768e+01 3.048880000000000035e+00 4.602579999999999671e+00 1.000000000000000000e+00
3.779260000000000019e+01 -1.192350000000000021e+00 6.296219999999999928e+00 1.000000000000000000e+00
4.223299999999999699e+01 1.017120000000000068e+01 -2.146459999999999813e+00 1.000000000000000000e+00
4.005169999999999675e+01 1.027749999999999986e+01 -1.410570000000000057e+01 8.000000000000000000e+00
4.005369999999999919e+01 1.239390000000000036e+01 -1.326909999999999989e+01 6.000000000000000000e+00
4.061580000000000013e+01 1.097400000000000020e+01 -1.085479999999999912e+01 5.000000000000000000e+00
4.042110000000000269e+01 1.308760000000000012e+01 -1.079139999999999944e+01 4.000000000000000000e+00
3.986440000000000339e+01 1.464659999999999940e+01 -1.273370000000000068e+01 4.000000000000000000e+00
4.049770000000000181e+01 9.250569999999999737e+00 -1.196069999999999922e+01 3.000000000000000000e+00
3.961079999999999757e+01 1.103739999999999988e+01 -1.630089999999999861e+01 3.000000000000000000e+00
4.008749999999999858e+01 8.010439999999999117e+00 -1.445270000000000010e+01 3.000000000000000000e+00
3.955980000000000274e+01 1.327519999999999989e+01 -1.552219999999999978e+01 3.000000000000000000e+00
4.047039999999999793e+01 1.454720000000000013e+01 -9.387700000000000600e+00 3.000000000000000000e+00
3.938580000000000325e+01 1.567709999999999937e+01 -1.495880000000000010e+01 2.000000000000000000e+00
4.077850000000000108e+01 1.528979999999999961e+01 -6.770889999999999631e+00 2.000000000000000000e+00
4.101259999999999906e+01 1.159960000000000058e+01 -8.387420000000000542e+00 2.000000000000000000e+00
3.955290000000000106e+01 6.540359999999999729e+00 -1.640009999999999835e+01 1.000000000000000000e+00
4.090140000000000242e+01 7.458779999999999966e+00 -1.027730000000000032e+01 1.000000000000000000e+00
4.062519999999999953e+01 6.640909999999999869e+00 -1.259529999999999994e+01 1.000000000000000000e+00
3.893059999999999832e+01 9.774919999999999831e+00 -1.902430000000000021e+01 1.000000000000000000e+00
3.913709999999999667e+01 1.465629999999999988e+01 -1.727659999999999840e+01 1.000000000000000000e+00
3.951610000000000156e+01 8.773300000000000765e+00 -1.686100000000000065e+01 1.000000000000000000e+00
3.911959999999999837e+01 1.205700000000000038e+01 -1.826869999999999905e+01 1.000000000000000000e+00
3.957820000000000249e+01 1.887950000000000017e+01 -8.073900000000000077e+00 1.000000000000000000e+00
4.024860000000000326e+01 1.750619999999999976e+01 -6.391919999999999824e+00 1.000000000000000000e+00
4.007869999999999777e+01 1.661550000000000082e+01 -8.978799999999999670e+00 1.000000000000000000e+00
3.938569999999999993e+01 1.844669999999999987e+01 -1.079909999999999926e+01 1.000000000000000000e+00
3.971540000000000248e+01 1.643359999999999843e+01 -1.162359999999999971e+01 1.000000000000000000e+00
4.111820000000000164e+01 1.310619999999999941e+01 -7.064470000000000027e+00 1.000000000000000000e+00
4.101180000000000092e+01 9.331590000000000273e+00 -8.689320000000000377e+00 1.000000000000000000e+00
4.036299999999999955e+01 1.796359999999999957e+01 -4.071629999999999860e+00 1.000000000000000000e+00
3.849329999999999785e+01 2.258050000000000068e+01 -5.744320000000000093e+00 1.000000000000000000e+00
3.946860000000000213e+01 1.989590000000000103e+01 -5.593230000000000146e+00 1.000000000000000000e+00
4.110349999999999682e+01 1.565900000000000070e+01 -4.332259999999999778e+00 1.000000000000000000e+00
3.890670000000000073e+01 2.105870000000000175e+01 -3.820199999999999818e+00 1.000000000000000000e+00
3.787080000000000268e+01 2.241979999999999862e+01 -2.437669999999999781e+00 6.000000000000000000e+00
3.640370000000000061e+01 2.379520000000000124e+01 -9.700079999999999814e-01 6.000000000000000000e+00
3.890670000000000073e+01 2.105870000000000175e+01 -3.820199999999999818e+00 6.000000000000000000e+00
3.717130000000000223e+01 2.154139999999999944e+01 -3.289409999999999834e-01 6.000000000000000000e+00
3.983350000000000080e+01 1.912190000000000012e+01 -2.434180000000000010e+00 5.000000000000000000e+00
4.036299999999999955e+01 1.796359999999999957e+01 -4.071629999999999860e+00 5.000000000000000000e+00
4.061140000000000327e+01 1.733699999999999974e+01 -9.393430000000000391e-01 5.000000000000000000e+00
3.874929999999999808e+01 2.022960000000000136e+01 -1.141899999999999915e+00 5.000000000000000000e+00
3.946860000000000213e+01 1.989590000000000103e+01 -5.593230000000000146e+00 5.000000000000000000e+00
3.568070000000000164e+01 2.036280000000000001e+01 1.704830000000000068e+00 4.000000000000000000e+00
3.351489999999999725e+01 2.179080000000000084e+01 1.956949999999999967e+00 4.000000000000000000e+00
3.785300000000000153e+01 1.950750000000000028e+01 1.021840000000000082e+00 4.000000000000000000e+00
3.961440000000000339e+01 1.801709999999999923e+01 6.258200000000000429e-01 4.000000000000000000e+00
3.532489999999999952e+01 2.240879999999999939e+01 6.643400000000000416e-01 4.000000000000000000e+00
4.035710000000000264e+01 1.543479999999999919e+01 2.452160000000000117e+00 3.000000000000000000e+00
3.887590000000000146e+01 1.694839999999999947e+01 2.609170000000000211e+00 3.000000000000000000e+00
4.136310000000000286e+01 1.555349999999999966e+01 -2.155190000000000161e+00 3.000000000000000000e+00
3.696280000000000143e+01 1.820390000000000086e+01 2.717600000000000016e+00 3.000000000000000000e+00
3.458180000000000121e+01 1.913200000000000145e+01 2.975359999999999783e+00 3.000000000000000000e+00
4.024860000000000326e+01 1.750619999999999976e+01 -6.391919999999999824e+00 3.000000000000000000e+00
4.110349999999999682e+01 1.565900000000000070e+01 -4.332259999999999778e+00 3.000000000000000000e+00
3.786370000000000147e+01 2.400390000000000157e+01 -4.025190000000000268e+00 3.000000000000000000e+00
3.632240000000000180e+01 1.673659999999999926e+01 4.257850000000000357e+00 2.000000000000000000e+00
4.121880000000000166e+01 1.529149999999999920e+01 6.745440000000000325e-01 2.000000000000000000e+00
3.423049999999999926e+01 1.737399999999999878e+01 4.401239999999999597e+00 2.000000000000000000e+00
3.686229999999999762e+01 2.538109999999999999e+01 -2.309979999999999922e+00 2.000000000000000000e+00
4.144339999999999691e+01 9.623279999999999390e+00 -6.251890000000000391e+00 2.000000000000000000e+00
4.154249999999999687e+01 1.330599999999999916e+01 -4.494309999999999583e+00 2.000000000000000000e+00
4.246020000000000039e+01 6.925159999999999982e+00 -1.119490000000000096e+00 2.000000000000000000e+00
4.111820000000000164e+01 1.310619999999999941e+01 -7.064470000000000027e+00 2.000000000000000000e+00
4.166879999999999740e+01 1.108150000000000013e+01 -4.911880000000000024e+00 2.000000000000000000e+00
4.077850000000000108e+01 1.528979999999999961e+01 -6.770889999999999631e+00 2.000000000000000000e+00
4.223299999999999699e+01 1.017120000000000068e+01 -2.146459999999999813e+00 2.000000000000000000e+00
4.212349999999999994e+01 8.696070000000000633e+00 -3.323109999999999786e+00 2.000000000000000000e+00
4.188159999999999883e+01 1.365080000000000027e+01 -5.424409999999999510e-01 1.000000000000000000e+00
3.986440000000000339e+01 1.464659999999999940e+01 -1.273370000000000068e+01 1.000000000000000000e+00
4.042110000000000269e+01 1.308760000000000012e+01 -1.079139999999999944e+01 1.000000000000000000e+00
4.047039999999999793e+01 1.454720000000000013e+01 -9.387700000000000600e+00 1.000000000000000000e+00
3.971540000000000248e+01 1.643359999999999843e+01 -1.162359999999999971e+01 1.000000000000000000e+00
3.957820000000000249e+01 1.887950000000000017e+01 -8.073900000000000077e+00 1.000000000000000000e+00
3.510520000000000351e+01 2.610119999999999862e+01 -3.882840000000000180e-01 1.000000000000000000e+00
4.195080000000000098e+01 1.250179999999999936e+01 -2.365699999999999914e+00 1.000000000000000000e+00
4.225880000000000081e+01 5.636529999999999596e+00 -2.533510000000000151e+00 1.000000000000000000e+00
4.189979999999999905e+01 5.031450000000000422e+00 -4.730730000000000324e+00 1.000000000000000000e+00
4.179270000000000351e+01 7.362409999999999677e+00 -4.944799999999999862e+00 1.000000000000000000e+00
3.189209999999999923e+01 1.451360000000000028e+01 7.910940000000000083e+00 1.000000000000000000e+00
3.370150000000000290e+01 1.515179999999999971e+01 6.765430000000000277e+00 1.000000000000000000e+00
3.553719999999999857e+01 1.531770000000000032e+01 5.931600000000000428e+00 1.000000000000000000e+00
2.989659999999999940e+01 1.975669999999999860e+01 4.177830000000000155e+00 1.000000000000000000e+00
3.733350000000000080e+01 1.411239999999999917e+01 6.234720000000000262e+00 1.000000000000000000e+00
3.224969999999999715e+01 1.872459999999999880e+01 3.945479999999999876e+00 1.000000000000000000e+00
3.584929999999999950e+01 1.328490000000000038e+01 7.781579999999999941e+00 1.000000000000000000e+00
3.950690000000000168e+01 1.361720000000000041e+01 5.018699999999999939e+00 1.000000000000000000e+00
3.252620000000000289e+01 1.660829999999999984e+01 5.540589999999999904e+00 1.000000000000000000e+00
3.084730000000000061e+01 1.591949999999999932e+01 6.682299999999999685e+00 1.000000000000000000e+00
3.396940000000000026e+01 1.341009999999999991e+01 8.444539999999999935e+00 1.000000000000000000e+00
4.086760000000000304e+01 1.343009999999999948e+01 3.407630000000000159e+00 1.000000000000000000e+00
3.241519999999999868e+01 2.051470000000000127e+01 2.964160000000000128e+00 1.000000000000000000e+00
3.828430000000000177e+01 1.544960000000000022e+01 4.449609999999999843e+00 1.000000000000000000e+00
2.868669999999999831e+01 1.678910000000000124e+01 6.378149999999999764e+00 1.000000000000000000e+00
3.061580000000000013e+01 1.779550000000000054e+01 5.072280000000000122e+00 1.000000000000000000e+00
3.888029999999999831e+01 2.125339999999999918e+01 -7.576380000000000337e+00 1.000000000000000000e+00
3.849329999999999785e+01 2.258050000000000068e+01 -5.744320000000000093e+00 1.000000000000000000e+00
-8.707770000000000010e+00 2.003359999999999985e+01 -7.150680000000000369e+00 7.000000000000000000e+00
-8.580389999999999517e+00 2.023659999999999926e+01 -4.919699999999999740e+00 7.000000000000000000e+00
-9.387650000000000716e+00 2.095990000000000109e+01 -1.057600000000000051e+01 7.000000000000000000e+00
-7.527650000000000396e+00 1.865090000000000003e+01 -3.511569999999999858e+00 6.000000000000000000e+00
-9.472459999999999880e+00 2.146900000000000119e+01 -8.489480000000000359e+00 6.000000000000000000e+00
-6.255580000000000140e+00 1.690970000000000084e+01 -3.372240000000000126e+00 6.000000000000000000e+00
-7.810559999999999725e+00 1.871900000000000119e+01 -5.755770000000000053e+00 6.000000000000000000e+00
-8.723089999999999122e+00 1.958089999999999975e+01 -9.158739999999999881e+00 6.000000000000000000e+00
-6.781109999999999971e+00 1.726739999999999853e+01 -5.089850000000000207e+00 5.000000000000000000e+00
-1.015779999999999994e+01 2.311289999999999978e+01 -7.602560000000000429e+00 5.000000000000000000e+00
-5.571559999999999846e+00 1.562560000000000038e+01 -5.490129999999999733e+00 5.000000000000000000e+00
-6.642500000000000071e+00 1.745189999999999841e+01 -1.577790000000000026e+00 5.000000000000000000e+00
-9.456590000000000273e+00 2.170189999999999841e+01 -6.236559999999999881e+00 5.000000000000000000e+00
-7.825499999999999901e+00 1.821049999999999969e+01 -7.660210000000000186e+00 5.000000000000000000e+00
-7.840399999999999814e+00 1.907639999999999958e+01 -1.552820000000000089e+00 5.000000000000000000e+00
-1.004589999999999961e+01 2.283439999999999870e+01 -9.909710000000000463e+00 5.000000000000000000e+00
-6.666789999999999772e+00 1.656820000000000093e+01 -6.916070000000000384e+00 5.000000000000000000e+00
-5.216949999999999754e+00 1.591769999999999996e+01 -1.827550000000000008e+00 5.000000000000000000e+00
-8.598599999999999355e+00 2.045880000000000010e+01 -2.946950000000000180e+00 5.000000000000000000e+00
-4.912749999999999950e+00 1.540910000000000046e+01 -3.771440000000000126e+00 5.000000000000000000e+00
-9.517590000000000217e+00 2.204410000000000025e+01 -4.124259999999999593e+00 4.000000000000000000e+00
-7.123859999999999637e+00 1.656070000000000064e+01 -8.709780000000000300e+00 4.000000000000000000e+00
-9.819409999999999528e+00 2.229390000000000072e+01 -1.202250000000000085e+01 4.000000000000000000e+00
-8.729850000000000776e+00 1.904360000000000142e+01 -1.129729999999999990e+01 4.000000000000000000e+00
-8.040520000000000778e+00 1.788200000000000145e+01 -9.834929999999999950e+00 4.000000000000000000e+00
-6.242740000000000400e+00 1.670060000000000144e+01 6.824750000000000261e-02 3.000000000000000000e+00
-1.041910000000000025e+01 2.402349999999999852e+01 -1.272669999999999924e+01 3.000000000000000000e+00
-1.066050000000000075e+01 2.446569999999999823e+01 -1.068929999999999936e+01 3.000000000000000000e+00
-5.727829999999999977e+00 1.494139999999999979e+01 -7.759470000000000312e+00 3.000000000000000000e+00
-1.081559999999999988e+01 2.464120000000000132e+01 -8.483879999999999200e+00 3.000000000000000000e+00
-9.526790000000000092e+00 2.161179999999999879e+01 -1.411359999999999992e+01 3.000000000000000000e+00
-4.495079999999999742e+00 1.532789999999999964e+01 -3.044490000000000252e-01 3.000000000000000000e+00
-8.829290000000000305e+00 2.043420000000000059e+01 -5.902779999999999694e-01 3.000000000000000000e+00
-2.774610000000000021e+00 1.426679999999999993e+01 -9.172979999999999468e-01 3.000000000000000000e+00
-9.222060000000000812e+00 2.029899999999999949e+01 -1.270149999999999935e+01 3.000000000000000000e+00
-3.624239999999999906e+00 1.417070000000000007e+01 -4.536990000000000300e+00 3.000000000000000000e+00
-3.619800000000000129e+00 1.460800000000000054e+01 -2.413159999999999972e+00 3.000000000000000000e+00
-8.296939999999999316e+00 1.748189999999999955e+01 -1.243549999999999933e+01 3.000000000000000000e+00
-7.623210000000000264e+00 1.637300000000000111e+01 -1.112490000000000023e+01 2.000000000000000000e+00
-6.655829999999999913e+00 1.522000000000000064e+01 -9.832209999999999894e+00 2.000000000000000000e+00
-1.137739999999999974e+01 2.532799999999999940e+01 -1.388870000000000005e+01 2.000000000000000000e+00
-1.154819999999999958e+01 2.584680000000000177e+01 -1.181290000000000084e+01 2.000000000000000000e+00
-4.963829999999999742e+00 1.526939999999999920e+01 1.334969999999999990e+00 2.000000000000000000e+00
-6.870020000000000238e+00 1.656449999999999889e+01 1.675100000000000033e+00 2.000000000000000000e+00
-2.983870000000000022e+00 1.425689999999999991e+01 9.585360000000000547e-01 2.000000000000000000e+00
-7.730550000000000033e+00 1.834730000000000061e+01 2.582650000000000223e-01 2.000000000000000000e+00
-9.533329999999999416e+00 2.198479999999999990e+01 -1.906660000000000021e+00 2.000000000000000000e+00
-1.038349999999999973e+01 2.362930000000000064e+01 -3.313989999999999991e+00 2.000000000000000000e+00
-1.030659999999999954e+01 2.348000000000000043e+01 -5.454679999999999751e+00 2.000000000000000000e+00
-1.057409999999999961e+01 2.347309999999999874e+01 -1.128589999999999982e+00 2.000000000000000000e+00
-1.107039999999999935e+01 2.495589999999999975e+01 -6.316480000000000317e+00 2.000000000000000000e+00
-2.420749999999999957e+00 1.314789999999999992e+01 -5.371509999999999785e+00 2.000000000000000000e+00
-4.544100000000000250e+00 1.427590000000000003e+01 -6.355480000000000018e+00 2.000000000000000000e+00
-2.085700000000000109e+00 1.361619999999999919e+01 -3.249589999999999979e+00 2.000000000000000000e+00
-8.767150000000000887e+00 1.878219999999999956e+01 -1.389429999999999943e+01 2.000000000000000000e+00
-1.025380000000000003e+01 2.347569999999999979e+01 -1.467389999999999972e+01 1.000000000000000000e+00
-5.604180000000000383e+00 1.493420000000000059e+01 2.772260000000000169e+00 1.000000000000000000e+00
-3.208070000000000199e+00 1.391089999999999982e+01 2.472339999999999982e+00 1.000000000000000000e+00
-4.440319999999999823e+00 1.372690000000000055e+01 3.734459999999999891e+00 1.000000000000000000e+00
-1.291370000000000040e+01 2.726079999999999970e+01 -1.085870000000000068e+01 1.000000000000000000e+00
-1.161270000000000024e+01 2.497210000000000107e+01 -2.061110000000000220e+00 1.000000000000000000e+00
-1.140199999999999925e+01 2.520700000000000074e+01 -4.090799999999999770e+00 1.000000000000000000e+00
-1.167079999999999984e+01 2.608849999999999980e+01 -9.660740000000000549e+00 1.000000000000000000e+00
-9.281390000000000029e+00 2.022749999999999915e+01 1.205570000000000030e+00 1.000000000000000000e+00
-1.338829999999999920e+01 2.746740000000000137e+01 -6.654379999999999740e+00 1.000000000000000000e+00
-1.233210000000000051e+01 2.638029999999999831e+01 -5.239499999999999602e+00 1.000000000000000000e+00
-1.272600000000000087e+01 2.674350000000000094e+01 -1.317089999999999961e+01 1.000000000000000000e+00
-9.982139999999999347e+00 2.205219999999999914e+01 2.819439999999999724e-01 1.000000000000000000e+00
-1.297059999999999924e+01 2.636009999999999920e+01 -2.868440000000000101e+00 1.000000000000000000e+00
-1.191830000000000034e+01 2.623560000000000159e+01 -7.527650000000000396e+00 1.000000000000000000e+00
-1.101430000000000042e+01 2.256800000000000139e+01 1.694970000000000088e+00 1.000000000000000000e+00
-1.310410000000000075e+01 2.743149999999999977e+01 -8.744419999999999860e+00 1.000000000000000000e+00
-1.163250000000000028e+01 2.407160000000000011e+01 3.098589999999999955e-01 1.000000000000000000e+00
-3.637760000000000105e+00 1.308919999999999995e+01 -7.240899999999999892e+00 1.000000000000000000e+00
-6.139000000000000012e-01 1.287020000000000053e+01 -4.042930000000000135e+00 1.000000000000000000e+00
-5.378459999999999575e+00 1.382240000000000002e+01 -8.974800000000000111e+00 1.000000000000000000e+00
-1.098749999999999893e+00 1.354659999999999975e+01 -1.496760000000000090e+00 1.000000000000000000e+00
-8.906610000000000582e+00 1.969930000000000092e+01 -1.534660000000000046e+01 1.000000000000000000e+00
-3.917029999999999745e+01 1.007230000000000025e+01 -7.478909999999999947e+00 7.000000000000000000e+00
-3.821889999999999787e+01 1.247129999999999939e+01 -8.399480000000000501e+00 7.000000000000000000e+00
-3.732350000000000279e+01 1.445960000000000001e+01 -8.799300000000000566e+00 6.000000000000000000e+00
-3.917810000000000059e+01 8.000859999999999417e+00 -8.716920000000000002e+00 6.000000000000000000e+00
-3.842940000000000111e+01 1.075760000000000005e+01 -9.620200000000000529e+00 6.000000000000000000e+00
-3.956000000000000227e+01 8.715859999999999275e+00 -5.667740000000000222e+00 6.000000000000000000e+00
-3.833449999999999847e+01 1.314100000000000001e+01 -6.420429999999999637e+00 5.000000000000000000e+00
-3.908120000000000260e+01 1.110960000000000036e+01 -5.468609999999999971e+00 5.000000000000000000e+00
-3.638640000000000185e+01 1.626079999999999970e+01 -9.125140000000000029e+00 5.000000000000000000e+00
-3.748629999999999995e+01 1.523150000000000048e+01 -6.234969999999999679e+00 4.000000000000000000e+00
-3.851870000000000260e+01 8.888859999999999317e+00 -1.078069999999999951e+01 4.000000000000000000e+00
-3.938870000000000005e+01 6.666330000000000311e+00 -6.997379999999999711e+00 4.000000000000000000e+00
-3.686959999999999837e+01 1.363059999999999938e+01 -1.075189999999999912e+01 4.000000000000000000e+00
-3.741429999999999723e+01 1.163460000000000072e+01 -1.136079999999999934e+01 4.000000000000000000e+00
-3.878229999999999933e+01 6.263930000000000220e+00 -1.006419999999999959e+01 3.000000000000000000e+00
-3.943670000000000186e+01 9.105029999999999291e+00 -3.396840000000000082e+00 3.000000000000000000e+00
-3.892069999999999652e+01 4.535330000000000084e+00 -5.615400000000000169e+00 2.000000000000000000e+00
-3.885190000000000055e+01 4.682269999999999932e+00 -7.841669999999999696e+00 2.000000000000000000e+00
-3.835580000000000211e+01 4.020640000000000214e+00 -9.951769999999999783e+00 2.000000000000000000e+00
-3.945250000000000057e+01 6.640170000000000350e+00 -4.459679999999999644e+00 2.000000000000000000e+00
-3.839359999999999928e+01 1.271690000000000076e+01 -4.076159999999999783e+00 2.000000000000000000e+00
-3.656049999999999756e+01 1.694849999999999923e+01 -7.092920000000000336e+00 2.000000000000000000e+00
-3.823020000000000351e+01 6.022710000000000008e+00 -1.205589999999999939e+01 1.000000000000000000e+00
-3.882789999999999964e+01 1.080180000000000007e+01 -2.576420000000000154e+00 1.000000000000000000e+00
-3.624040000000000106e+01 1.784430000000000049e+01 -5.094660000000000188e+00 1.000000000000000000e+00
-3.638130000000000308e+01 1.692429999999999879e+01 -3.317000000000000171e+00 1.000000000000000000e+00
-3.549190000000000111e+01 1.911009999999999920e+01 -6.860879999999999868e+00 1.000000000000000000e+00
-3.744800000000000040e+01 1.502710000000000079e+01 -4.216310000000000002e+00 1.000000000000000000e+00
-3.540870000000000317e+01 1.850420000000000087e+01 -9.012320000000000775e+00 1.000000000000000000e+00
-3.526389999999999958e+01 1.051549999999999940e+01 -1.719010000000000105e+01 1.000000000000000000e+01
-3.514339999999999975e+01 1.258530000000000015e+01 -1.520710000000000051e+01 7.000000000000000000e+00
-3.600780000000000314e+01 1.041029999999999944e+01 -1.509810000000000052e+01 7.000000000000000000e+00
-3.562550000000000239e+01 7.075639999999999930e+00 -1.811820000000000164e+01 6.000000000000000000e+00
-3.605400000000000205e+01 8.195100000000000051e+00 -1.660810000000000031e+01 6.000000000000000000e+00
-3.473819999999999908e+01 1.250990000000000002e+01 -1.780509999999999948e+01 6.000000000000000000e+00
-3.453139999999999787e+01 1.432970000000000077e+01 -1.653140000000000143e+01 5.000000000000000000e+00
-3.507379999999999853e+01 9.554809999999999803e+00 -1.901030000000000086e+01 5.000000000000000000e+00
-3.583689999999999998e+01 1.284409999999999918e+01 -1.329149999999999920e+01 5.000000000000000000e+00
-3.477830000000000155e+01 1.505039999999999978e+01 -1.427299999999999969e+01 5.000000000000000000e+00
-3.702270000000000039e+01 8.136820000000000164e+00 -1.456930000000000014e+01 4.000000000000000000e+00
-3.695949999999999847e+01 1.059629999999999939e+01 -1.305550000000000033e+01 3.000000000000000000e+00
-3.451489999999999725e+01 1.631739999999999924e+01 -1.667549999999999955e+01 3.000000000000000000e+00
-3.459790000000000276e+01 1.735689999999999955e+01 -1.488010000000000055e+01 3.000000000000000000e+00
-3.486359999999999815e+01 1.715569999999999951e+01 -1.279499999999999993e+01 2.000000000000000000e+00
-3.471200000000000330e+01 1.966059999999999874e+01 -1.306789999999999985e+01 2.000000000000000000e+00
-3.570259999999999678e+01 1.474370000000000047e+01 -1.213470000000000049e+01 2.000000000000000000e+00
-3.555899999999999750e+01 1.666130000000000067e+01 -1.092309999999999981e+01 2.000000000000000000e+00
-3.494019999999999726e+01 7.956599999999999895e+00 -2.032819999999999894e+01 2.000000000000000000e+00
-3.741429999999999723e+01 1.163460000000000072e+01 -1.136079999999999934e+01 1.000000000000000000e+00
-3.571220000000000283e+01 4.672170000000000378e+00 -1.793860000000000099e+01 1.000000000000000000e+00
-3.663119999999999976e+01 5.634500000000000064e+00 -1.604159999999999897e+01 1.000000000000000000e+00
-3.617060000000000031e+01 3.179609999999999825e+00 -1.634649999999999892e+01 1.000000000000000000e+00
-3.742490000000000094e+01 5.884990000000000165e+00 -1.419560000000000066e+01 1.000000000000000000e+00
-3.502020000000000266e+01 1.646409999999999840e+01 -1.898329999999999984e+01 1.000000000000000000e+00
-3.502839999999999776e+01 5.697519999999999918e+00 -1.978699999999999903e+01 1.000000000000000000e+00
-3.499530000000000030e+01 1.949470000000000169e+01 -1.530390000000000050e+01 1.000000000000000000e+00
-3.480910000000000082e+01 1.451110000000000078e+01 -1.911459999999999937e+01 1.000000000000000000e+00
-3.485540000000000305e+01 1.911560000000000059e+01 -1.099259999999999948e+01 1.000000000000000000e+00
-3.463430000000000319e+01 6.867680000000000007e+00 -2.233139999999999858e+01 1.000000000000000000e+00
-3.487570000000000192e+01 8.923470000000000013e+00 -2.271450000000000102e+01 1.000000000000000000e+00
