-4.284620000000000317e+00 1.840660000000000096e+01 1.853350000000000009e+01 1.000000000000000000e+01
-1.420350000000000001e+00 2.069330000000000069e+01 1.541419999999999924e+01 1.000000000000000000e+01
-1.345529999999999893e+00 1.952730000000000032e+01 1.638690000000000069e+01 1.000000000000000000e+01
3.527950000000000141e+00 1.884130000000000038e+01 1.595040000000000013e+01 1.000000000000000000e+01
1.345409999999999939e-01 2.141560000000000130e+01 1.471519999999999939e+01 1.000000000000000000e+01
-2.685919999999999863e+00 1.763019999999999854e+01 1.860040000000000049e+01 1.000000000000000000e+01
2.058329999999999882e-01 1.876389999999999958e+01 1.660970000000000013e+01 1.000000000000000000e+01
5.157389999999999475e-01 1.729220000000000113e+01 1.752990000000000137e+01 1.000000000000000000e+01
-5.986780000000000435e+00 2.216829999999999856e+01 1.319860000000000078e+01 1.000000000000000000e+01
-2.804969999999999963e+00 2.260109999999999886e+01 1.311309999999999931e+01 1.000000000000000000e+01
2.117980000000000196e+00 2.162730000000000175e+01 1.452839999999999954e+01 1.000000000000000000e+01
-1.741489999999999982e+00 2.185829999999999984e+01 1.429340000000000011e+01 1.000000000000000000e+01
-3.215759999999999952e+00 2.017660000000000053e+01 1.618449999999999989e+01 1.000000000000000000e+01
2.159320000000000128e+00 1.718299999999999983e+01 1.708539999999999992e+01 1.000000000000000000e+01
1.889869999999999939e+00 1.867000000000000171e+01 1.628569999999999851e+01 1.000000000000000000e+01
-2.927189999999999959e+00 1.896180000000000021e+01 1.735210000000000008e+01 1.000000000000000000e+01
2.458990000000000009e+00 2.023580000000000112e+01 1.532789999999999964e+01 1.000000000000000000e+01
-1.286620000000000097e+00 1.815119999999999933e+01 1.750669999999999860e+01 1.000000000000000000e+01
6.374440000000000106e-01 2.013109999999999999e+01 1.560440000000000005e+01 9.000000000000000000e+00
-9.692960000000000464e-01 1.680310000000000059e+01 1.850880000000000081e+01 9.000000000000000000e+00
-4.401099999999999568e+00 2.194000000000000128e+01 1.398179999999999978e+01 9.000000000000000000e+00
-5.770559999999999690e+00 2.251589999999999847e+01 1.148799999999999955e+01 9.000000000000000000e+00
-8.440630000000000077e-01 2.285160000000000124e+01 1.317939999999999934e+01 9.000000000000000000e+00
4.423440000000000261e+00 2.034009999999999962e+01 1.522669999999999924e+01 9.000000000000000000e+00
-4.677340000000000053e+00 1.960670000000000002e+01 1.725219999999999843e+01 9.000000000000000000e+00
4.005279999999999951e+00 2.180809999999999960e+01 1.450569999999999915e+01 9.000000000000000000e+00
3.946629999999999860e+00 1.720410000000000039e+01 1.664669999999999916e+01 9.000000000000000000e+00
8.055999999999999828e-01 2.262760000000000105e+01 1.366569999999999929e+01 9.000000000000000000e+00
-4.224039999999999573e+00 2.270690000000000097e+01 1.225350000000000072e+01 9.000000000000000000e+00
8.537970000000000281e-01 1.596790000000000020e+01 1.833530000000000015e+01 9.000000000000000000e+00
5.182260000000000311e+00 2.317409999999999926e+01 1.398249999999999993e+01 8.000000000000000000e+00
5.052240000000000286e+00 1.602670000000000172e+01 1.706769999999999854e+01 8.000000000000000000e+00
4.381459999999999688e+00 1.482649999999999935e+01 1.801810000000000045e+01 8.000000000000000000e+00
-3.389019999999999921e+00 2.129149999999999920e+01 1.494979999999999976e+01 8.000000000000000000e+00
2.970359999999999889e+00 2.301419999999999888e+01 1.359619999999999962e+01 8.000000000000000000e+00
2.139200000000000212e+00 1.490010000000000012e+01 1.866420000000000101e+01 8.000000000000000000e+00
-7.492659999999999876e+00 2.226310000000000144e+01 1.146100000000000030e+01 8.000000000000000000e+00
1.686309999999999976e+00 2.370949999999999847e+01 1.260960000000000036e+01 8.000000000000000000e+00
-6.039699999999999847e+00 2.150799999999999912e+01 1.484179999999999922e+01 8.000000000000000000e+00
5.214419999999999611e+00 1.842099999999999937e+01 1.600410000000000110e+01 8.000000000000000000e+00
3.001009999999999955e+00 1.587519999999999953e+01 1.766100000000000136e+01 8.000000000000000000e+00
-5.068700000000000289e-02 2.374429999999999907e+01 1.194280000000000008e+01 8.000000000000000000e+00
5.872090000000000032e+00 2.175560000000000116e+01 1.487480000000000047e+01 8.000000000000000000e+00
4.130539999999999878e+00 2.412180000000000035e+01 1.284570000000000078e+01 7.000000000000000000e+00
3.967010000000000258e-01 1.471950000000000003e+01 1.955039999999999978e+01 7.000000000000000000e+00
3.251259999999999817e+00 1.381550000000000011e+01 1.922370000000000090e+01 7.000000000000000000e+00
-1.938460000000000072e+00 2.341069999999999851e+01 1.169280000000000008e+01 7.000000000000000000e+00
-9.804140000000000077e-01 1.566070000000000029e+01 1.946490000000000009e+01 7.000000000000000000e+00
6.050749999999999851e+00 1.987800000000000011e+01 1.560640000000000072e+01 7.000000000000000000e+00
-4.991839999999999833e+00 2.072520000000000095e+01 1.589729999999999954e+01 7.000000000000000000e+00
-3.539789999999999992e+00 2.315240000000000009e+01 1.077369999999999983e+01 7.000000000000000000e+00
-2.735829999999999984e+00 1.654779999999999873e+01 1.968230000000000146e+01 6.000000000000000000e+00
1.574880000000000058e+00 1.362650000000000006e+01 2.002629999999999910e+01 6.000000000000000000e+00
-1.862139999999999906e+00 2.371259999999999835e+01 1.002909999999999968e+01 6.000000000000000000e+00
-4.991929999999999978e+00 2.261730000000000018e+01 9.964639999999999276e+00 6.000000000000000000e+00
3.011680000000000135e+00 2.462109999999999843e+01 1.165629999999999988e+01 6.000000000000000000e+00
-6.857450000000000045e+00 2.214069999999999894e+01 9.906800000000000495e+00 6.000000000000000000e+00
-6.903760000000000119e+00 2.083609999999999829e+01 1.633200000000000074e+01 6.000000000000000000e+00
-6.322149999999999714e+00 1.994510000000000005e+01 1.746359999999999957e+01 5.000000000000000000e+00
6.440600000000000491e-02 1.330380000000000074e+01 2.099070000000000036e+01 5.000000000000000000e+00
1.407350000000000101e+00 2.451370000000000005e+01 1.088949999999999996e+01 5.000000000000000000e+00
-2.267879999999999896e-01 2.421559999999999846e+01 1.025140000000000029e+01 5.000000000000000000e+00
-8.693289999999999296e+00 2.182179999999999964e+01 9.744999999999999218e+00 5.000000000000000000e+00
-1.437300000000000022e+00 2.367989999999999995e+01 8.381819999999999382e+00 5.000000000000000000e+00
-4.659980000000000011e+00 2.228780000000000072e+01 8.406180000000000874e+00 5.000000000000000000e+00
-3.227189999999999781e+00 2.310300000000000153e+01 9.004989999999999384e+00 5.000000000000000000e+00
-8.008029999999999760e+00 2.129019999999999868e+01 8.348340000000000316e+00 5.000000000000000000e+00
-7.628829999999999778e+00 2.210940000000000083e+01 1.315380000000000038e+01 5.000000000000000000e+00
2.121710000000000207e+00 2.492729999999999890e+01 8.020849999999999369e+00 4.000000000000000000e+00
1.747619999999999951e+00 1.239359999999999928e+01 2.116740000000000066e+01 4.000000000000000000e+00
3.104770000000000030e-01 2.439610000000000056e+01 8.826679999999999637e+00 4.000000000000000000e+00
-1.127680000000000016e+00 1.430569999999999986e+01 2.072390000000000043e+01 4.000000000000000000e+00
-2.489910000000000068e+00 1.525590000000000046e+01 2.069269999999999854e+01 4.000000000000000000e+00
-4.520170000000000243e+00 1.740950000000000131e+01 1.978049999999999997e+01 4.000000000000000000e+00
6.260200000000000209e+00 1.720899999999999963e+01 1.647899999999999920e+01 4.000000000000000000e+00
-7.830759999999999721e+00 2.168049999999999855e+01 1.478500000000000014e+01 4.000000000000000000e+00
-6.330890000000000128e+00 2.170370000000000132e+01 8.424670000000000769e+00 4.000000000000000000e+00
-9.099330000000000140e+00 2.217620000000000147e+01 1.151190000000000069e+01 4.000000000000000000e+00
-2.482029999999999959e+00 1.369229999999999947e+01 2.183139999999999858e+01 3.000000000000000000e+00
5.998039999999999594e+00 2.463560000000000016e+01 1.322589999999999932e+01 3.000000000000000000e+00
-4.165989999999999860e+00 1.617089999999999961e+01 2.081139999999999901e+01 3.000000000000000000e+00
7.222540000000000404e+00 1.861769999999999925e+01 1.630249999999999844e+01 3.000000000000000000e+00
7.230430000000000135e+00 2.123740000000000094e+01 1.563480000000000025e+01 3.000000000000000000e+00
-5.932859999999999800e+00 1.879159999999999897e+01 1.880969999999999942e+01 3.000000000000000000e+00
2.188029999999999919e+00 2.498580000000000112e+01 9.595649999999999125e+00 3.000000000000000000e+00
-3.902839999999999865e+00 1.469669999999999987e+01 2.178389999999999915e+01 3.000000000000000000e+00
5.026659999999999684e+00 2.527479999999999905e+01 1.173470000000000013e+01 3.000000000000000000e+00
-1.315620000000000012e+00 1.264240000000000030e+01 2.203040000000000020e+01 3.000000000000000000e+00
3.328310000000000102e+00 1.262780000000000058e+01 2.036230000000000118e+01 3.000000000000000000e+00
6.269749999999999490e-01 2.420270000000000010e+01 7.254819999999999602e+00 3.000000000000000000e+00
8.017879999999999896e+00 2.003059999999999974e+01 1.643189999999999884e+01 2.000000000000000000e+00
-8.525610000000000355e+00 2.106579999999999941e+01 1.646620000000000061e+01 2.000000000000000000e+00
-9.638329999999999842e+00 2.184519999999999840e+01 1.503400000000000070e+01 2.000000000000000000e+00
6.870820000000000149e+00 2.343939999999999912e+01 1.457659999999999911e+01 2.000000000000000000e+00
7.993949999999999889e+00 2.273189999999999955e+01 1.566070000000000029e+01 2.000000000000000000e+00
3.881219999999999892e+00 2.537369999999999948e+01 1.033029999999999937e+01 2.000000000000000000e+00
3.823160000000000114e+00 2.548359999999999914e+01 8.553710000000000591e+00 2.000000000000000000e+00
-5.897599999999999731e+00 1.672149999999999892e+01 2.089939999999999998e+01 2.000000000000000000e+00
2.443140000000000034e-01 1.190830000000000055e+01 2.206449999999999889e+01 2.000000000000000000e+00
-3.996210000000000040e+00 1.302820000000000000e+01 2.264000000000000057e+01 2.000000000000000000e+00
4.927990000000000315e+00 1.350060000000000038e+01 1.898349999999999937e+01 2.000000000000000000e+00
-2.764679999999999804e+00 1.191939999999999955e+01 2.282779999999999987e+01 2.000000000000000000e+00
-6.468779999999999752e+00 1.787590000000000146e+01 1.996340000000000003e+01 2.000000000000000000e+00
2.816959999999999908e+00 2.476650000000000063e+01 6.546599999999999753e+00 2.000000000000000000e+00
-2.887090000000000156e+00 2.268690000000000140e+01 7.445179999999999687e+00 2.000000000000000000e+00
-6.023600000000000065e+00 2.098369999999999891e+01 6.945630000000000415e+00 2.000000000000000000e+00
-8.018090000000000828e+00 2.047560000000000002e+01 6.902330000000000076e+00 2.000000000000000000e+00
-9.269889999999999519e-01 2.341229999999999833e+01 6.926800000000000068e+00 2.000000000000000000e+00
-4.366690000000000182e+00 2.162730000000000175e+01 6.886370000000000324e+00 2.000000000000000000e+00
-9.738379999999999370e+00 2.087839999999999918e+01 7.816159999999999997e+00 2.000000000000000000e+00
-9.351679999999999993e+00 2.214829999999999899e+01 1.335089999999999932e+01 2.000000000000000000e+00
7.095290000000000319e+00 2.576719999999999899e+01 1.247400000000000020e+01 1.000000000000000000e+00
-8.916689999999999117e+00 2.024609999999999843e+01 1.782880000000000109e+01 1.000000000000000000e+00
6.092399999999999594e+00 2.603839999999999932e+01 1.080710000000000015e+01 1.000000000000000000e+00
9.396599999999999397e+00 2.004550000000000054e+01 1.753340000000000032e+01 1.000000000000000000e+00
7.715270000000000294e+00 2.498359999999999914e+01 1.401290000000000013e+01 1.000000000000000000e+00
8.011380000000000834e+00 1.687480000000000047e+01 1.703140000000000143e+01 1.000000000000000000e+00
8.972709999999999297e+00 2.165429999999999922e+01 1.685660000000000025e+01 1.000000000000000000e+00
5.350290000000000212e+00 2.601739999999999853e+01 9.234090000000000131e+00 1.000000000000000000e+00
8.749639999999999418e+00 1.833380000000000010e+01 1.719689999999999941e+01 1.000000000000000000e+00
6.180220000000000269e+00 1.444989999999999952e+01 1.792989999999999995e+01 1.000000000000000000e+00
4.440789999999999793e+00 2.546239999999999881e+01 7.032540000000000013e+00 1.000000000000000000e+00
1.244229999999999947e+00 2.384240000000000137e+01 5.849239999999999995e+00 1.000000000000000000e+00
-6.746800000000000352e+00 2.002110000000000056e+01 5.754159999999999719e+00 1.000000000000000000e+00
-1.223600000000000065e+01 2.149030000000000129e+01 8.574859999999999260e+00 1.000000000000000000e+00
-1.049799999999999933e+01 2.203989999999999938e+01 1.062860000000000049e+01 1.000000000000000000e+00
-1.042980000000000018e+01 2.150390000000000157e+01 9.022660000000000124e+00 1.000000000000000000e+00
-1.237899999999999956e+01 2.240759999999999863e+01 1.177389999999999937e+01 1.000000000000000000e+00
-1.088550000000000040e+01 2.229319999999999879e+01 1.250980000000000025e+01 1.000000000000000000e+00
-1.171049999999999969e+01 2.073410000000000153e+01 7.291350000000000442e+00 1.000000000000000000e+00
-1.217179999999999929e+01 2.206950000000000145e+01 1.014300000000000068e+01 1.000000000000000000e+00
3.795940000000000225e+01 3.649140000000000050e+00 1.162180000000000035e+01 7.000000000000000000e+00
3.762010000000000076e+01 4.425399999999999778e+00 1.005949999999999989e+01 6.000000000000000000e+00
3.807249999999999801e+01 5.128079999999999750e+00 1.305729999999999968e+01 6.000000000000000000e+00
3.746540000000000248e+01 7.531259999999999621e+00 1.071829999999999927e+01 6.000000000000000000e+00
3.688689999999999714e+01 9.175430000000000419e+00 1.004310000000000080e+01 6.000000000000000000e+00
3.782699999999999818e+01 5.774390000000000356e+00 1.135689999999999955e+01 6.000000000000000000e+00
3.729710000000000036e+01 6.190590000000000259e+00 9.306359999999999744e+00 5.000000000000000000e+00
3.740209999999999724e+01 9.149039999999999395e+00 1.195850000000000080e+01 5.000000000000000000e+00
3.679529999999999745e+01 7.950929999999999609e+00 8.684710000000000818e+00 5.000000000000000000e+00
3.774199999999999733e+01 1.953550000000000009e-01 1.134290000000000020e+01 5.000000000000000000e+00
3.800619999999999976e+01 1.772839999999999971e+00 1.247020000000000017e+01 5.000000000000000000e+00
3.776279999999999859e+01 2.106189999999999785e+00 1.058590000000000053e+01 5.000000000000000000e+00
3.787019999999999698e+01 7.287379999999999747e+00 1.266699999999999982e+01 4.000000000000000000e+00
3.792900000000000205e+01 6.443190000000000417e+00 1.426350000000000051e+01 4.000000000000000000e+00
3.711220000000000141e+01 4.673650000000000304e+00 8.030839999999999534e+00 4.000000000000000000e+00
3.735379999999999967e+01 -1.433540000000000036e+00 1.080119999999999969e+01 4.000000000000000000e+00
3.738709999999999667e+01 3.008849999999999802e+00 8.919309999999999405e+00 4.000000000000000000e+00
3.739950000000000330e+01 8.490860000000000074e-01 9.431089999999999307e+00 4.000000000000000000e+00
3.707820000000000249e+01 -7.729190000000000227e-01 9.128640000000000754e+00 4.000000000000000000e+00
3.787319999999999709e+01 3.644109999999999849e-01 1.356659999999999933e+01 4.000000000000000000e+00
3.808409999999999940e+01 3.354210000000000136e+00 1.354020000000000046e+01 4.000000000000000000e+00
3.771809999999999974e+01 8.757419999999999760e+00 1.387149999999999928e+01 3.000000000000000000e+00
3.772740000000000293e+01 1.973479999999999901e+00 1.470369999999999955e+01 3.000000000000000000e+00
3.761379999999999768e+01 -1.308259999999999978e+00 1.279010000000000069e+01 3.000000000000000000e+00
3.674589999999999890e+01 2.444449999999999956e-01 7.322379999999999889e+00 3.000000000000000000e+00
3.632000000000000028e+01 1.079250000000000043e+01 9.838620000000000587e+00 3.000000000000000000e+00
3.704099999999999682e+01 1.925419999999999909e+00 7.659659999999999691e+00 3.000000000000000000e+00
3.713040000000000163e+01 -2.794500000000000206e+00 1.394469999999999921e+01 2.000000000000000000e+00
3.720120000000000005e+01 -2.994920000000000027e+00 1.193459999999999965e+01 2.000000000000000000e+00
3.681949999999999790e+01 -2.895020000000000149e+00 9.815229999999999677e+00 2.000000000000000000e+00
3.667629999999999768e+01 -4.428279999999999994e+00 1.108769999999999989e+01 2.000000000000000000e+00
3.626509999999999678e+01 -2.950769999999999782e-01 5.878009999999999735e+00 2.000000000000000000e+00
3.651800000000000068e+01 -1.711640000000000050e+00 7.801599999999999646e+00 2.000000000000000000e+00
3.631190000000000140e+01 1.614090000000000025e+00 5.046039999999999637e+00 2.000000000000000000e+00
3.618970000000000198e+01 8.959270000000000067e+00 7.360809999999999853e+00 2.000000000000000000e+00
3.594879999999999853e+01 1.035679999999999978e+01 8.171670000000000655e+00 2.000000000000000000e+00
3.674860000000000326e+01 6.454220000000000290e+00 7.372880000000000322e+00 2.000000000000000000e+00
3.731269999999999953e+01 1.057419999999999938e+01 1.361669999999999980e+01 2.000000000000000000e+00
3.689489999999999981e+01 1.085870000000000068e+01 1.173700000000000010e+01 2.000000000000000000e+00
3.777190000000000225e+01 4.530499999999999972e+00 1.500239999999999974e+01 1.000000000000000000e+00
3.674770000000000181e+01 -4.588770000000000238e+00 1.308389999999999986e+01 1.000000000000000000e+00
3.532920000000000016e+01 -1.104610000000000092e+00 3.180120000000000058e+00 1.000000000000000000e+00
3.588349999999999795e+01 2.176649999999999974e-01 4.152560000000000251e+00 1.000000000000000000e+00
3.594919999999999760e+01 -2.262270000000000003e+00 6.368719999999999715e+00 1.000000000000000000e+00
3.573740000000000094e+01 8.797129999999999228e+00 5.456269999999999953e+00 1.000000000000000000e+00
3.674150000000000205e+01 4.134940000000000282e+00 6.418520000000000003e+00 1.000000000000000000e+00
3.624410000000000309e+01 7.312549999999999883e+00 5.896250000000000213e+00 1.000000000000000000e+00
3.664520000000000266e+01 2.606209999999999916e+00 6.057959999999999567e+00 1.000000000000000000e+00
3.642880000000000251e+01 5.394650000000000389e+00 5.436670000000000336e+00 1.000000000000000000e+00
3.624210000000000065e+01 -3.473679999999999879e+00 8.423379999999999868e+00 1.000000000000000000e+00
3.532110000000000127e+01 1.238299999999999912e+01 8.974099999999999966e+00 1.000000000000000000e+00
3.402920000000000300e+01 1.446069999999999922e+01 8.826000000000000512e+00 1.000000000000000000e+00
3.489900000000000091e+01 1.396529999999999916e+01 1.012650000000000006e+01 1.000000000000000000e+00
3.735609999999999786e+01 8.079530000000000101e+00 1.549649999999999928e+01 1.000000000000000000e+00
3.704379999999999740e+01 1.022470000000000034e+01 1.549879999999999924e+01 1.000000000000000000e+00
1.164669999999999916e+01 2.688190000000000168e+01 1.185679999999999978e+01 4.000000000000000000e+00
1.345270000000000010e+01 2.663690000000000069e+01 1.272550000000000026e+01 4.000000000000000000e+00
1.321209999999999951e+01 2.664999999999999858e+01 1.094669999999999987e+01 4.000000000000000000e+00
1.600300000000000011e+01 2.612430000000000163e+01 1.466119999999999912e+01 4.000000000000000000e+00
2.372500000000000142e+01 2.458569999999999922e+01 1.236829999999999963e+01 4.000000000000000000e+00
2.382959999999999923e+01 2.486759999999999948e+01 1.425929999999999964e+01 4.000000000000000000e+00
2.990309999999999846e+01 2.158879999999999910e+01 1.353759999999999941e+01 4.000000000000000000e+00
2.719229999999999947e+01 2.333680000000000021e+01 1.344699999999999918e+01 4.000000000000000000e+00
2.639110000000000156e+01 2.395329999999999870e+01 1.496519999999999939e+01 4.000000000000000000e+00
3.121849999999999881e+01 2.046959999999999980e+01 1.361069999999999958e+01 4.000000000000000000e+00
2.870710000000000051e+01 2.265729999999999933e+01 1.463069999999999915e+01 4.000000000000000000e+00
3.029909999999999926e+01 2.145690000000000097e+01 1.537410000000000032e+01 4.000000000000000000e+00
2.542279999999999873e+01 2.419079999999999941e+01 1.352040000000000042e+01 4.000000000000000000e+00
2.220179999999999865e+01 2.532039999999999935e+01 1.444439999999999991e+01 4.000000000000000000e+00
1.513039999999999985e+01 2.635600000000000165e+01 1.271080000000000076e+01 3.000000000000000000e+00
1.427500000000000036e+01 2.631070000000000064e+01 1.453090000000000082e+01 3.000000000000000000e+00
1.061270000000000024e+01 2.659550000000000125e+01 1.326040000000000063e+01 3.000000000000000000e+00
1.387289999999999957e+01 2.641629999999999967e+01 9.361510000000000886e+00 3.000000000000000000e+00
1.506969999999999921e+01 2.628590000000000160e+01 1.094020000000000081e+01 3.000000000000000000e+00
1.596049999999999969e+01 2.599739999999999895e+01 9.176660000000000039e+00 3.000000000000000000e+00
1.762369999999999948e+01 2.601899999999999835e+01 1.418430000000000035e+01 3.000000000000000000e+00
2.840700000000000003e+01 2.237549999999999883e+01 1.264610000000000056e+01 3.000000000000000000e+00
3.187640000000000029e+01 1.920919999999999916e+01 1.221429999999999971e+01 3.000000000000000000e+00
2.759909999999999997e+01 2.320339999999999847e+01 1.598850000000000016e+01 3.000000000000000000e+00
2.213149999999999906e+01 2.510699999999999932e+01 1.251520000000000010e+01 3.000000000000000000e+00
3.233070000000000022e+01 1.959110000000000085e+01 1.473460000000000036e+01 3.000000000000000000e+00
2.924380000000000024e+01 2.127909999999999968e+01 1.152360000000000007e+01 3.000000000000000000e+00
1.470439999999999969e+01 2.613719999999999999e+01 7.908940000000000303e+00 3.000000000000000000e+00
1.220620000000000083e+01 2.673150000000000048e+01 8.877980000000000871e+00 3.000000000000000000e+00
1.825450000000000017e+01 2.583279999999999887e+01 1.165809999999999924e+01 2.000000000000000000e+00
1.969010000000000105e+01 2.538710000000000022e+01 1.061619999999999919e+01 2.000000000000000000e+00
1.674990000000000023e+01 2.613810000000000144e+01 1.258109999999999928e+01 2.000000000000000000e+00
1.685300000000000153e+01 2.596440000000000126e+01 1.053110000000000035e+01 2.000000000000000000e+00
1.503110000000000035e+01 2.582219999999999871e+01 1.621809999999999974e+01 2.000000000000000000e+00
1.229260000000000019e+01 2.652430000000000021e+01 1.398579999999999934e+01 2.000000000000000000e+00
1.911260000000000048e+01 2.578379999999999939e+01 1.317580000000000062e+01 2.000000000000000000e+00
2.059440000000000026e+01 2.560859999999999914e+01 1.418500000000000050e+01 2.000000000000000000e+00
3.311240000000000094e+01 1.835940000000000083e+01 1.315010000000000012e+01 2.000000000000000000e+00
2.454210000000000136e+01 2.462539999999999907e+01 1.577490000000000059e+01 2.000000000000000000e+00
2.063169999999999860e+01 2.540200000000000102e+01 1.217730000000000068e+01 2.000000000000000000e+00
2.516240000000000165e+01 2.385670000000000002e+01 1.165019999999999989e+01 2.000000000000000000e+00
2.385279999999999845e+01 2.376480000000000103e+01 8.417370000000000019e+00 2.000000000000000000e+00
2.670550000000000068e+01 2.308780000000000143e+01 1.165419999999999945e+01 2.000000000000000000e+00
2.218629999999999924e+01 2.447390000000000043e+01 8.692080000000000695e+00 2.000000000000000000e+00
3.050319999999999965e+01 2.025819999999999865e+01 1.169040000000000035e+01 2.000000000000000000e+00
2.890800000000000125e+01 2.204390000000000072e+01 1.658149999999999835e+01 2.000000000000000000e+00
7.599289999999999878e+00 2.619480000000000075e+01 6.205809999999999604e+00 2.000000000000000000e+00
1.649040000000000106e+01 2.575309999999999988e+01 7.067429999999999879e+00 2.000000000000000000e+00
1.693769999999999953e+01 2.544610000000000127e+01 5.085049999999999848e+00 2.000000000000000000e+00
1.783980000000000032e+01 2.305189999999999984e+01 4.539509999999999934e-01 2.000000000000000000e+00
1.504609999999999914e+01 2.589949999999999974e+01 6.051040000000000418e+00 2.000000000000000000e+00
7.095290000000000319e+00 2.576719999999999899e+01 1.247400000000000020e+01 2.000000000000000000e+00
1.055700000000000038e+01 2.554429999999999978e+01 3.657150000000000123e+00 2.000000000000000000e+00
7.918739999999999668e+00 2.662239999999999895e+01 7.916760000000000019e+00 2.000000000000000000e+00
1.911250000000000071e+01 2.404139999999999944e+01 2.380520000000000191e+00 2.000000000000000000e+00
1.529819999999999958e+01 2.546709999999999852e+01 4.340539999999999843e+00 2.000000000000000000e+00
1.080840000000000067e+01 2.454830000000000112e+01 2.088610000000000078e+00 2.000000000000000000e+00
1.113180000000000014e+01 2.691969999999999885e+01 1.009229999999999983e+01 2.000000000000000000e+00
1.339129999999999932e+01 2.603069999999999951e+01 5.452670000000000350e+00 2.000000000000000000e+00
1.578619999999999912e+01 2.358599999999999852e+01 9.354649999999999910e-01 2.000000000000000000e+00
9.341850000000000875e+00 2.660529999999999973e+01 6.758849999999999802e+00 2.000000000000000000e+00
1.135839999999999961e+01 2.636400000000000077e+01 5.751179999999999737e+00 2.000000000000000000e+00
9.680059999999999221e+00 2.617259999999999920e+01 5.154370000000000118e+00 2.000000000000000000e+00
1.738149999999999906e+01 2.399170000000000158e+01 1.857320000000000082e+00 2.000000000000000000e+00
1.124559999999999960e+01 2.668609999999999971e+01 7.348760000000000403e+00 2.000000000000000000e+00
7.715270000000000294e+00 2.498359999999999914e+01 1.401290000000000013e+01 2.000000000000000000e+00
9.432669999999999888e+00 2.576829999999999998e+01 1.439579999999999949e+01 2.000000000000000000e+00
1.379460000000000086e+01 2.536070000000000135e+01 3.564369999999999816e+00 2.000000000000000000e+00
1.212139999999999951e+01 2.585679999999999978e+01 4.303659999999999819e+00 2.000000000000000000e+00
8.774599999999999511e+00 2.629100000000000037e+01 1.283750000000000036e+01 2.000000000000000000e+00
1.442420000000000080e+01 2.442180000000000106e+01 1.977170000000000094e+00 2.000000000000000000e+00
8.015489999999999782e+00 2.567790000000000106e+01 4.665840000000000209e+00 2.000000000000000000e+00
1.305739999999999945e+01 2.637790000000000035e+01 7.127040000000000042e+00 2.000000000000000000e+00
1.769150000000000134e+01 2.484329999999999927e+01 3.582320000000000171e+00 2.000000000000000000e+00
1.596519999999999939e+01 2.473019999999999996e+01 2.838919999999999888e+00 2.000000000000000000e+00
1.300730000000000075e+01 2.395779999999999887e+01 1.131920000000000037e+00 2.000000000000000000e+00
1.237330000000000041e+01 2.492170000000000130e+01 2.574240000000000084e+00 2.000000000000000000e+00
9.868460000000000676e+00 2.688939999999999841e+01 8.469030000000000058e+00 2.000000000000000000e+00
4.130539999999999878e+00 2.412180000000000035e+01 1.284570000000000078e+01 2.000000000000000000e+00
5.182260000000000311e+00 2.317409999999999926e+01 1.398249999999999993e+01 2.000000000000000000e+00
2.970359999999999889e+00 2.301419999999999888e+01 1.359619999999999962e+01 2.000000000000000000e+00
1.686309999999999976e+00 2.370949999999999847e+01 1.260960000000000036e+01 2.000000000000000000e+00
3.574219999999999686e+01 1.386860000000000070e+01 1.205349999999999966e+01 2.000000000000000000e+00
1.904830000000000112e+01 2.577120000000000033e+01 1.534699999999999953e+01 1.000000000000000000e+00
1.725080000000000169e+01 2.577680000000000149e+01 1.613729999999999976e+01 1.000000000000000000e+00
2.258099999999999952e+01 2.508419999999999916e+01 1.624419999999999931e+01 1.000000000000000000e+00
2.076129999999999853e+01 2.546420000000000172e+01 1.610030000000000072e+01 1.000000000000000000e+00
2.561980000000000146e+01 2.282610000000000028e+01 8.158950000000000813e+00 1.000000000000000000e+00
3.000989999999999824e+01 1.980039999999999978e+01 9.841730000000000089e+00 1.000000000000000000e+00
2.135539999999999949e+01 2.492109999999999914e+01 1.028909999999999947e+01 1.000000000000000000e+00
2.444399999999999906e+01 2.376399999999999935e+01 9.982789999999999608e+00 1.000000000000000000e+00
2.870540000000000092e+01 2.088970000000000127e+01 9.506069999999999354e+00 1.000000000000000000e+00
2.731230000000000047e+01 2.175250000000000128e+01 8.641809999999999548e+00 1.000000000000000000e+00
2.611690000000000111e+01 2.285020000000000095e+01 9.811880000000000379e+00 1.000000000000000000e+00
2.294170000000000087e+01 2.451829999999999998e+01 1.061630000000000074e+01 1.000000000000000000e+00
2.776839999999999975e+01 2.203399999999999892e+01 1.059980000000000011e+01 1.000000000000000000e+00
2.571049999999999969e+01 2.383889999999999887e+01 1.681690000000000040e+01 1.000000000000000000e+00
9.016550000000000509e+00 2.691339999999999932e+01 9.800800000000000622e+00 1.000000000000000000e+00
7.877559999999999896e+00 2.657489999999999952e+01 1.110410000000000075e+01 1.000000000000000000e+00
6.073439999999999728e+00 2.613639999999999830e+01 7.644949999999999690e+00 1.000000000000000000e+00
6.092399999999999594e+00 2.603839999999999932e+01 1.080710000000000015e+01 1.000000000000000000e+00
7.172830000000000261e+00 2.655280000000000129e+01 9.343540000000000845e+00 1.000000000000000000e+00
1.113189999999999991e+01 2.599780000000000157e+01 1.512119999999999997e+01 1.000000000000000000e+00
5.350290000000000212e+00 2.601739999999999853e+01 9.234090000000000131e+00 1.000000000000000000e+00
9.825329999999999231e+00 2.688459999999999894e+01 1.147460000000000058e+01 1.000000000000000000e+00
1.672030000000000172e+01 2.250309999999999988e+01 -5.672650000000000192e-01 1.000000000000000000e+00
2.128000000000000114e+01 2.461540000000000106e+01 7.094330000000000247e+00 1.000000000000000000e+00
1.924089999999999989e+01 2.483630000000000138e+01 4.443310000000000315e+00 1.000000000000000000e+00
1.259629999999999939e+01 2.298110000000000142e+01 -2.853910000000000058e-01 1.000000000000000000e+00
1.448220000000000063e+01 2.312079999999999913e+01 6.811580000000000412e-02 1.000000000000000000e+00
2.408079999999999998e+01 2.349749999999999872e+01 4.927360000000000184e+00 1.000000000000000000e+00
1.834829999999999828e+01 2.530170000000000030e+01 6.015760000000000218e+00 1.000000000000000000e+00
2.131690000000000040e+01 2.332300000000000040e+01 1.638710000000000111e+00 1.000000000000000000e+00
8.972749999999999559e+00 2.414839999999999876e+01 1.920889999999999986e+00 1.000000000000000000e+00
2.218669999999999831e+01 2.391689999999999827e+01 3.437209999999999877e+00 1.000000000000000000e+00
2.227349999999999852e+01 2.417350000000000065e+01 5.119220000000000326e+00 1.000000000000000000e+00
1.769259999999999877e+01 2.555750000000000099e+01 8.094659999999999300e+00 1.000000000000000000e+00
1.941710000000000136e+01 2.512120000000000175e+01 7.232639999999999958e+00 1.000000000000000000e+00
1.113990000000000080e+01 2.362519999999999953e+01 7.182720000000000216e-01 1.000000000000000000e+00
2.022769999999999868e+01 2.504009999999999891e+01 8.709619999999999251e+00 1.000000000000000000e+00
8.931480000000000530e+00 2.509410000000000096e+01 3.294259999999999966e+00 1.000000000000000000e+00
2.417419999999999902e+01 2.324849999999999994e+01 3.323650000000000215e+00 1.000000000000000000e+00
2.057910000000000039e+01 2.469849999999999923e+01 5.407989999999999853e+00 1.000000000000000000e+00
1.969549999999999912e+01 2.317030000000000101e+01 9.956739999999999480e-01 1.000000000000000000e+00
2.304830000000000112e+01 2.399589999999999890e+01 6.779690000000000438e+00 1.000000000000000000e+00
1.514150000000000063e+01 2.225260000000000105e+01 -1.234760000000000080e+00 1.000000000000000000e+00
2.053480000000000061e+01 2.420759999999999934e+01 3.283790000000000209e+00 1.000000000000000000e+00
2.312719999999999843e+01 2.307460000000000022e+01 1.885709999999999997e+00 1.000000000000000000e+00
2.476249999999999929e+01 2.319200000000000017e+01 6.628250000000000419e+00 1.000000000000000000e+00
1.842970000000000041e+01 2.551010000000000133e+01 9.478049999999999642e+00 1.000000000000000000e+00
-8.440630000000000077e-01 2.285160000000000124e+01 1.317939999999999934e+01 1.000000000000000000e+00
4.005279999999999951e+00 2.180809999999999960e+01 1.450569999999999915e+01 1.000000000000000000e+00
8.055999999999999828e-01 2.262760000000000105e+01 1.366569999999999929e+01 1.000000000000000000e+00
2.117980000000000196e+00 2.162730000000000175e+01 1.452839999999999954e+01 1.000000000000000000e+00
-5.068700000000000289e-02 2.374429999999999907e+01 1.194280000000000008e+01 1.000000000000000000e+00
3.532059999999999889e+01 1.539819999999999922e+01 1.334060000000000024e+01 1.000000000000000000e+00
3.456020000000000181e+01 1.684690000000000154e+01 1.439059999999999917e+01 1.000000000000000000e+00
3.144529999999999959e+01 2.013240000000000052e+01 1.612659999999999982e+01 1.000000000000000000e+00
3.351989999999999981e+01 1.817449999999999832e+01 1.519209999999999994e+01 1.000000000000000000e+00
3.405830000000000268e+01 1.686890000000000001e+01 1.253599999999999959e+01 1.000000000000000000e+00
3.489900000000000091e+01 1.396529999999999916e+01 1.012650000000000006e+01 1.000000000000000000e+00
5.998039999999999594e+00 2.463560000000000016e+01 1.322589999999999932e+01 1.000000000000000000e+00
6.870820000000000149e+00 2.343939999999999912e+01 1.457659999999999911e+01 1.000000000000000000e+00
3.011680000000000135e+00 2.462109999999999843e+01 1.165629999999999988e+01 1.000000000000000000e+00
5.026659999999999684e+00 2.527479999999999905e+01 1.173470000000000013e+01 1.000000000000000000e+00
3.632000000000000028e+01 1.079250000000000043e+01 9.838620000000000587e+00 1.000000000000000000e+00
3.598169999999999646e+01 1.238920000000000066e+01 1.075530000000000008e+01 1.000000000000000000e+00
3.740209999999999724e+01 9.149039999999999395e+00 1.195850000000000080e+01 1.000000000000000000e+00
3.731269999999999953e+01 1.057419999999999938e+01 1.361669999999999980e+01 1.000000000000000000e+00
3.771809999999999974e+01 8.757419999999999760e+00 1.387149999999999928e+01 1.000000000000000000e+00
3.689489999999999981e+01 1.085870000000000068e+01 1.173700000000000010e+01 1.000000000000000000e+00
3.614520000000000266e+01 1.401810000000000045e+01 1.410079999999999956e+01 1.000000000000000000e+00
3.681839999999999691e+01 1.216009999999999991e+01 1.461979999999999968e+01 1.000000000000000000e+00
3.688689999999999714e+01 9.175430000000000419e+00 1.004310000000000080e+01 1.000000000000000000e+00
3.658919999999999817e+01 1.242709999999999937e+01 1.277280000000000015e+01 1.000000000000000000e+00
3.710900000000000087e+00 -4.559079999999999799e+00 2.124869999999999948e+01 1.000000000000000000e+01
4.190439999999999721e+00 -1.579630000000000090e+00 2.301889999999999858e+01 1.000000000000000000e+01
3.879690000000000083e+00 -2.997489999999999988e+00 2.208020000000000138e+01 1.000000000000000000e+01
4.050720000000000098e+00 -6.072479999999999656e+00 2.073150000000000048e+01 1.000000000000000000e+01
1.709489999999999954e+00 -6.188390000000000057e+00 1.966300000000000026e+01 1.000000000000000000e+01
5.348510000000000097e+00 -5.080729999999999968e+00 2.192119999999999891e+01 1.000000000000000000e+01
5.248680000000000234e+00 -3.670650000000000190e+00 2.261730000000000018e+01 1.000000000000000000e+01
3.155170000000000030e+00 -6.946039999999999992e+00 1.991700000000000159e+01 1.000000000000000000e+01
-8.802740000000000009e-01 -7.644190000000000040e+00 1.805099999999999838e+01 9.000000000000000000e+00
2.628820000000000157e+00 -1.622509999999999897e+00 2.214639999999999986e+01 9.000000000000000000e+00
7.754990000000000494e-01 -7.275800000000000267e+00 1.884019999999999939e+01 9.000000000000000000e+00
3.824860000000000149e+00 -8.666949999999999932e+00 1.946120000000000161e+01 9.000000000000000000e+00
6.981770000000000032e+00 -5.796660000000000146e+00 2.214639999999999986e+01 9.000000000000000000e+00
4.861720000000000041e+00 -7.882670000000000066e+00 2.031980000000000075e+01 9.000000000000000000e+00
5.629679999999999573e+00 -6.673370000000000246e+00 2.125150000000000006e+01 9.000000000000000000e+00
2.345219999999999860e+00 -4.914950000000000152e+00 2.046259999999999835e+01 9.000000000000000000e+00
3.110739999999999839e+00 -1.435879999999999934e-01 2.311880000000000024e+01 8.000000000000000000e+00
-2.791199999999999903e+00 -9.035159999999999414e+00 1.651030000000000086e+01 8.000000000000000000e+00
2.228099999999999969e+00 -8.109980000000000189e+00 1.900349999999999895e+01 8.000000000000000000e+00
6.268320000000000114e+00 -2.974000000000000199e+00 2.352009999999999934e+01 8.000000000000000000e+00
-2.637999999999999901e+00 -7.613380000000000258e+00 1.727049999999999841e+01 8.000000000000000000e+00
-1.170930000000000026e+00 -8.979990000000000805e+00 1.728770000000000095e+01 8.000000000000000000e+00
2.377060000000000173e+00 -3.231230000000000047e+00 2.126849999999999952e+01 8.000000000000000000e+00
7.134089999999999598e+00 -4.477310000000000123e+00 2.290719999999999956e+01 7.000000000000000000e+00
1.501130000000000075e+00 -2.393899999999999917e-01 2.257270000000000110e+01 7.000000000000000000e+00
4.781320000000000014e-01 -5.063209999999999766e+00 1.986400000000000077e+01 7.000000000000000000e+00
-5.234069999999999556e-01 -6.198140000000000427e+00 1.896440000000000126e+01 7.000000000000000000e+00
5.939320000000000155e-01 -8.810219999999999274e+00 1.806040000000000134e+01 7.000000000000000000e+00
4.549979999999999691e+00 2.008159999999999945e-01 2.411260000000000048e+01 6.000000000000000000e+00
-3.012890000000000068e+00 -5.078619999999999912e+00 1.881279999999999930e+01 6.000000000000000000e+00
2.249830000000000219e+00 -9.582750000000000767e+00 1.838769999999999882e+01 6.000000000000000000e+00
1.068699999999999983e+00 -1.963980000000000059e+00 2.161670000000000158e+01 6.000000000000000000e+00
-1.376889999999999947e+00 -4.987029999999999852e+00 1.944889999999999830e+01 6.000000000000000000e+00
-4.383770000000000167e+00 -8.722799999999999443e+00 1.589039999999999964e+01 6.000000000000000000e+00
-4.319980000000000153e+00 -7.264090000000000380e+00 1.668189999999999884e+01 6.000000000000000000e+00
5.434650000000000425e+00 -1.479370000000000074e+00 2.385920000000000130e+01 6.000000000000000000e+00
8.880930000000000213e-01 -3.669979999999999798e+00 2.067699999999999960e+01 6.000000000000000000e+00
-4.099000000000000199e+00 -6.070680000000000298e+00 1.760739999999999839e+01 6.000000000000000000e+00
-3.261399999999999716e-02 -8.437189999999999968e-01 2.224419999999999931e+01 6.000000000000000000e+00
-2.243809999999999860e+00 -6.373230000000000395e+00 1.822299999999999898e+01 6.000000000000000000e+00
3.147170000000000023e+00 1.372149999999999981e+00 2.390810000000000102e+01 5.000000000000000000e+00
-1.195509999999999975e-02 6.594309999999999894e-01 2.315330000000000155e+01 5.000000000000000000e+00
1.592319999999999958e+00 1.275220000000000020e+00 2.340220000000000056e+01 5.000000000000000000e+00
7.171909999999999563e+00 -9.687310000000000088e+00 2.047009999999999863e+01 5.000000000000000000e+00
-8.320520000000000138e-01 -3.761159999999999837e+00 2.039239999999999853e+01 5.000000000000000000e+00
5.436270000000000380e+00 -9.661680000000000490e+00 1.982629999999999981e+01 5.000000000000000000e+00
-4.822890000000000232e-01 -2.477759999999999962e+00 2.126139999999999830e+01 5.000000000000000000e+00
-5.889920000000000044e+00 -8.516750000000000043e+00 1.547310000000000052e+01 5.000000000000000000e+00
-1.653140000000000054e+00 -2.212379999999999902e-01 2.308879999999999910e+01 5.000000000000000000e+00
6.417060000000000208e+00 -8.341720000000000468e+00 2.079680000000000106e+01 5.000000000000000000e+00
-2.377339999999999787e+00 -2.728660000000000085e+00 2.104870000000000019e+01 5.000000000000000000e+00
-1.672250000000000014e+00 -1.548720000000000097e+00 2.204179999999999851e+01 5.000000000000000000e+00
-5.935839999999999783e+00 -6.997959999999999958e+00 1.640790000000000148e+01 5.000000000000000000e+00
2.155310000000000059e+00 -1.116039999999999921e+01 1.783409999999999940e+01 5.000000000000000000e+00
3.855170000000000208e+00 -1.013669999999999938e+01 1.887040000000000006e+01 5.000000000000000000e+00
7.522170000000000023e+00 -7.351549999999999585e+00 2.149530000000000030e+01 4.000000000000000000e+00
-1.140630000000000033e+00 1.566500000000000004e+00 2.392129999999999868e+01 4.000000000000000000e+00
-6.145870000000000388e+00 -5.811569999999999681e+00 1.737890000000000157e+01 4.000000000000000000e+00
-2.609780000000000211e+00 -3.818010000000000126e+00 2.000250000000000128e+01 4.000000000000000000e+00
-7.483999999999999986e+00 -7.982739999999999725e+00 1.589530000000000065e+01 4.000000000000000000e+00
-2.394540000000000113e+00 -1.062160000000000082e+01 1.623669999999999902e+01 4.000000000000000000e+00
6.727039999999999687e-01 -1.027079999999999949e+01 1.754680000000000106e+01 4.000000000000000000e+00
3.635460000000000136e+00 -1.167089999999999961e+01 1.824859999999999971e+01 4.000000000000000000e+00
9.880789999999999296e+00 -7.324639999999999596e+00 2.114529999999999887e+01 3.000000000000000000e+00
7.219680000000000319e+00 -1.827010000000000023e+00 2.436990000000000123e+01 3.000000000000000000e+00
5.145240000000000258e+00 1.422109999999999985e+00 2.492360000000000042e+01 3.000000000000000000e+00
-3.270739999999999981e+00 -6.537640000000000118e-01 2.319310000000000116e+01 3.000000000000000000e+00
-4.060080000000000133e+00 -1.035130000000000017e+01 1.554850000000000065e+01 3.000000000000000000e+00
-7.746319999999999872e+00 -6.722550000000000026e+00 1.693890000000000029e+01 3.000000000000000000e+00
6.233030000000000292e+00 -3.059580000000000077e-01 2.478669999999999973e+01 3.000000000000000000e+00
8.490569999999999951e+00 -1.155359999999999943e+01 2.004050000000000153e+01 3.000000000000000000e+00
-8.762450000000000516e-01 -1.049719999999999942e+01 1.690630000000000166e+01 3.000000000000000000e+00
9.686389999999999390e+00 -3.002969999999999917e+00 2.286550000000000082e+01 2.000000000000000000e+00
4.183279999999999776e-01 2.387220000000000120e+00 2.392259999999999920e+01 2.000000000000000000e+00
8.591089999999999449e+00 -8.504170000000000229e+00 2.104390000000000072e+01 2.000000000000000000e+00
2.019289999999999807e+00 2.951630000000000198e+00 2.421199999999999974e+01 2.000000000000000000e+00
1.067409999999999926e+01 -3.570390000000000175e+00 2.175349999999999895e+01 2.000000000000000000e+00
8.876889999999999503e+00 -1.005530000000000079e+01 2.052530000000000143e+01 2.000000000000000000e+00
1.013269999999999982e+01 -5.291369999999999685e+00 2.166900000000000048e+01 2.000000000000000000e+00
9.012760000000000105e+00 -1.679550000000000098e+00 2.396099999999999852e+01 2.000000000000000000e+00
3.813919999999999977e+00 2.617100000000000204e+00 2.467879999999999896e+01 2.000000000000000000e+00
8.885130000000000194e+00 -4.613489999999999647e+00 2.262259999999999849e+01 2.000000000000000000e+00
1.109789999999999921e+01 -6.307990000000000208e+00 2.073580000000000112e+01 2.000000000000000000e+00
-7.268139999999999823e+00 -9.481700000000000017e+00 1.503609999999999935e+01 2.000000000000000000e+00
4.964400000000000368e+00 -1.293290000000000006e+01 1.841100000000000136e+01 2.000000000000000000e+00
2.789079999999999782e+00 -1.619529999999999959e+01 1.675769999999999982e+01 2.000000000000000000e+00
1.886360000000000037e+00 -1.458430000000000071e+01 1.703519999999999968e+01 2.000000000000000000e+00
5.185330000000000217e-01 -1.199390000000000001e+01 1.710610000000000142e+01 2.000000000000000000e+00
-9.810889999999999889e-01 -1.219860000000000078e+01 1.654060000000000130e+01 2.000000000000000000e+00
-4.766390000000000349e+00 -4.867289999999999672e+00 1.839349999999999952e+01 2.000000000000000000e+00
-5.908870000000000289e+00 -3.500700000000000145e+00 1.981709999999999994e+01 2.000000000000000000e+00
-4.306519999999999904e+00 -2.777590000000000003e+00 2.082010000000000005e+01 2.000000000000000000e+00
-6.386459999999999582e+00 -4.632439999999999891e+00 1.855979999999999919e+01 2.000000000000000000e+00
6.832729999999999748e+00 -1.114889999999999937e+01 1.981550000000000011e+01 2.000000000000000000e+00
-3.465650000000000119e+00 -1.784599999999999964e+00 2.207679999999999865e+01 2.000000000000000000e+00
5.255819999999999936e+00 -1.118730000000000047e+01 1.912809999999999988e+01 2.000000000000000000e+00
-4.240560000000000329e+00 -3.792300000000000004e+00 1.957389999999999830e+01 2.000000000000000000e+00
1.932160000000000100e+00 -1.284450000000000003e+01 1.737900000000000134e+01 2.000000000000000000e+00
-8.015409999999999258e+00 -5.621640000000000192e+00 1.802980000000000160e+01 2.000000000000000000e+00
-5.654090000000000060e+00 -1.019960000000000022e+01 1.494679999999999964e+01 2.000000000000000000e+00
-2.751370000000000093e+00 9.135020000000000362e-01 2.406960000000000122e+01 2.000000000000000000e+00
1.158079999999999998e+01 -4.449480000000000324e+00 2.066369999999999862e+01 1.000000000000000000e+00
-1.837390000000000079e+00 4.634310000000000151e+00 2.471079999999999899e+01 1.000000000000000000e+00
-8.029429999999999623e-01 3.492519999999999847e+00 2.442930000000000135e+01 1.000000000000000000e+00
2.647889999999999855e+00 4.296109999999999651e+00 2.468580000000000041e+01 1.000000000000000000e+00
7.040929999999999689e-01 4.300839999999999996e+00 2.442460000000000164e+01 1.000000000000000000e+00
1.037369999999999948e+01 -8.845679999999999765e+00 2.055280000000000129e+01 1.000000000000000000e+00
-8.966850000000000875e+00 -9.006990000000000052e+00 1.574619999999999997e+01 1.000000000000000000e+00
-8.955420000000000158e+00 -1.055450000000000088e+01 1.490869999999999962e+01 1.000000000000000000e+00
-2.651990000000000069e+00 -1.221519999999999939e+01 1.588560000000000016e+01 1.000000000000000000e+00
8.104430000000000689e+00 -3.199059999999999793e+00 2.358899999999999864e+01 1.000000000000000000e+00
6.871419999999999639e+00 9.697430000000000216e-01 2.543230000000000146e+01 1.000000000000000000e+00
1.056559999999999988e+01 -1.050169999999999959e+01 2.013879999999999981e+01 1.000000000000000000e+00
1.168640000000000079e+01 -8.081519999999999371e+00 2.006840000000000046e+01 1.000000000000000000e+00
8.707290000000000418e+00 -6.297909999999999897e+00 2.191440000000000055e+01 1.000000000000000000e+00
8.112389999999999546e+00 -4.889180000000000192e-01 2.486670000000000158e+01 1.000000000000000000e+00
-7.781240000000000379e+00 -4.361550000000000260e+00 1.916629999999999967e+01 1.000000000000000000e+00
9.235989999999999478e-01 -1.584549999999999947e+01 1.645959999999999823e+01 1.000000000000000000e+00
5.459489999999999732e+00 -1.454279999999999973e+01 1.806619999999999848e+01 1.000000000000000000e+00
4.810889999999999667e+00 -1.620459999999999923e+01 1.717950000000000088e+01 1.000000000000000000e+00
3.461650000000000116e+00 -1.335650000000000048e+01 1.773610000000000042e+01 1.000000000000000000e+00
3.733010000000000161e+00 -1.490019999999999989e+01 1.741689999999999827e+01 1.000000000000000000e+00
3.401560000000000139e-01 -1.380719999999999992e+01 1.676180000000000092e+01 1.000000000000000000e+00
3.991410000000000124e+00 -1.749040000000000106e+01 1.637519999999999953e+01 1.000000000000000000e+00
6.494959999999999845e+00 -1.605570000000000164e+01 1.769300000000000139e+01 1.000000000000000000e+00
5.801730000000000054e+00 -1.758990000000000009e+01 1.657100000000000151e+01 1.000000000000000000e+00
-4.510769999999999946e+00 4.347010000000000041e-01 2.409969999999999857e+01 1.000000000000000000e+00
-5.268229999999999968e+00 -1.873490000000000100e+00 2.197479999999999833e+01 1.000000000000000000e+00
-4.206929999999999836e+00 -1.194960000000000022e+01 1.524109999999999943e+01 1.000000000000000000e+00
